# .PCD v0.7 - Point Cloud Data file format
VERSION 0.7
FIELDS x y z
SIZE 4 4 4
TYPE F F F
COUNT 1 1 1
WIDTH 1384
HEIGHT 1
VIEWPOINT 0 0 0 1 0 0 0
POINTS 1384
DATA ascii
-0.025238398 0.02127184 0.16293471
-0.024197567 0.02136576 0.1636541
-0.023023518 0.02134556 0.16349939
-0.021803107 0.021277994 0.16298185
-0.020697609 0.021321295 0.16331352
-0.019720281 0.021509489 0.16475502
-0.018904846 0.021908823 0.16781378
-0.017987391 0.022235291 0.17031442
-0.017156126 0.022722553 0.17404665
-0.011630652 0.016589245 0.1270677
-0.028254813 0.043659333 0.33441496
-0.019208098 0.032378562 0.24800825
-0.33790872 0.62656385 4.7992558
-0.047332656 0.097517878 0.74695218
-0.02289574 0.053067748 0.40648001
-0.01618506 0.042872835 0.32839063
-0.0074201655 0.02293128 0.17564543
-0.0061423113 0.022778634 0.17447622
-0.0048809666 0.022626206 0.17330869
-0.0036548292 0.022589767 0.17302956
-0.0024281959 0.022512289 0.1724361
-0.0012179656 0.022584004 0.17298543
0 0.022654766 0.17352743
0.0012293665 0.022795405 0.17460468
0.0024551982 0.022762632 0.17435364
0.0036627192 0.022638531 0.17340308
0.00484992 0.022482287 0.17220631
0.0060983147 0.022615476 0.17322648
0.0074176439 0.022923488 0.17558573
0.0087805474 0.023258917 0.17815502
0.010026743 0.023239985 0.17801
0.011177681 0.023029 0.17639394
0.012322502 0.022848876 0.17501424
0.013606089 0.022935411 0.17567708
0.014975606 0.023140302 0.17724648
0.016273856 0.023212025 0.17779584
0.017310511 0.022927031 0.17561288
0.018464552 0.022825141 0.17483243
0.019892925 0.023053909 0.17658472
0.02170012 0.023668956 0.18129577
0.023485243 0.024192929 0.18530923
0.025024334 0.024421638 0.18706104
0.026164263 0.024257408 0.18580312
0.02721736 0.024032151 0.18407771
0.028109483 0.023691693 0.18146992
0.029009279 0.023387028 0.17913631
0.030000534 0.023178412 0.17753837
0.031221895 0.023157151 0.17737553
0.032583393 0.023237472 0.17799076
0.033922046 0.023296153 0.17844023
0.03500234 0.023179548 0.17754708
0.03588907 0.022947222 0.17576754
0.036819782 0.022757569 0.17431486
0.037993982 0.022725791 0.17407148
0.039352469 0.022802787 0.17466122
0.040557928 0.02278913 0.17455661
0.041313745 0.022531059 0.17257987
0.042109303 0.022308784 0.17087735
0.043330293 0.022317989 0.17094782
0.044984769 0.022543933 0.17267849
0.046313025 0.022598803 0.1730988
0.047884472 0.022766486 0.17438316
0.049092904 0.022757504 0.17431438
0.051370982 0.023232713 0.1779543
0.051952474 0.022936272 0.17568368
0.052401442 0.022596477 0.17308095
0.052382514 0.022074943 0.1690862
0.053108547 0.021883551 0.1676202
0.05382096 0.021694992 0.16617592
0.054924827 0.021668894 0.165976
0.056070738 0.021660125 0.16590883
0.057188347 0.021641003 0.16576238
0.058032911 0.021521388 0.16484615
0.058765326 0.021365687 0.16365355
0.059273321 0.021135952 0.16189386
0.059915651 0.020961886 0.16056058
0.060444079 0.020755153 0.15897708
0.060928717 0.020541174 0.15733805
0.061670825 0.020420091 0.15641062
0.062563673 0.020352293 0.1558913
0.06381648 0.020401906 0.15627134
0.093222558 0.029297793 0.22441065
0.26269355 0.081182815 0.62183136
0.73112136 0.22224171 1.7022922
0.26264992 0.078550965 0.60167235
0.22352093 0.065787531 0.50390905
0.31646487 0.091687784 0.70229572
1.5403886 0.43942308 3.365824
1.6729654 0.47001201 3.6001244
0.45944417 0.12715219 0.97394049
2.0433283 0.55717951 4.2677965
0.38601103 0.10373291 0.79455709
0.13729978 0.036369529 0.27857763
0.56398731 0.14729124 1.1281984
1.8965032 0.48841277 3.7410676
0.34273189 0.08705578 0.66681623
1.7109501 0.42871782 3.2838259
0.52645695 0.13015699 0.99695617
1.6347963 0.39885584 3.0550935
0.82446432 0.19853956 1.5207423
0.80439109 0.19122231 1.4646947
1.1969734 0.28094631 2.1519487
0.16750151 0.038823497 0.29737416
1.0847409 0.24831726 1.9020216
0.81842822 0.18506856 1.4175593
-0.13303538 0.031708967 0.23042403
-0.14266673 0.034424409 0.2501567
-0.12591316 0.030761672 0.22354019
-0.1253939 0.031022593 0.22543626
-0.1221466 0.030606637 0.22241357
-0.12073906 0.030646849 0.2227058
-0.12039024 0.030960394 0.22498427
-0.11970247 0.03119397 0.22668162
-0.11869735 0.031350039 0.22781575
-0.11625209 0.03112481 0.22617905
-0.11481898 0.031168077 0.22649346
-0.11326514 0.031179328 0.22657523
-0.11290333 0.031523727 0.22907791
-0.11149709 0.031582262 0.22950329
-0.11064775 0.031802587 0.23110437
-0.10872107 0.031715222 0.23046948
-0.10801551 0.031986818 0.23244312
-0.10646723 0.032013372 0.23263608
-0.10609867 0.032401025 0.23545311
-0.10632903 0.032986797 0.23970981
-0.1071537 0.033778802 0.24546522
-0.10892165 0.034899011 0.2536056
-0.10877762 0.035433751 0.25749144
-0.10728681 0.035540469 0.25826696
-0.1036403 0.03492444 0.25379038
-0.10125666 0.034719829 0.25230348
-0.098367304 0.0343314 0.24948084
-0.096454583 0.034275908 0.24907759
-0.094365746 0.034154616 0.24819618
-0.093551941 0.034498937 0.25069833
-0.092408068 0.034732442 0.25239515
-0.091389 0.035022937 0.25450611
-0.088404238 0.034556668 0.25111783
-0.083646081 0.033364017 0.24245101
-0.077846222 0.031697508 0.23034076
-0.075746983 0.031498969 0.22889799
-0.077561595 0.032954726 0.23947677
-0.076636165 0.033285115 0.24187765
-0.075675011 0.03361465 0.24427235
-0.075320683 0.034235332 0.24878275
-0.074484341 0.034661271 0.25187796
-0.078027785 0.037195828 0.27029619
-0.078352652 0.038284462 0.27820712
-0.074829839 0.037500668 0.27251139
-0.072708763 0.037396587 0.27175504
-0.088554531 0.046777599 0.33992535
-0.068568222 0.037226245 0.2705172
-0.064660877 0.036107909 0.26239043
-0.1162613 0.066832095 0.48565823
-0.071001053 0.042051319 0.30558029
-0.040166494 0.024532555 0.17827417
-0.038474549 0.0242572 0.17627323
-0.036110356 0.023525525 0.17095625
-0.033595569 0.022641895 0.16453506
-0.031331755 0.021870339 0.15892828
-0.029598007 0.021425327 0.15569447
-0.028218467 0.021212356 0.15414682
-0.027180349 0.021249261 0.15441501
-0.026443895 0.021534905 0.15649074
-0.02574604 0.02187819 0.15898535
-0.025010454 0.022219164 0.16146314
-0.024138398 0.022465598 0.16325393
-0.023101779 0.022575857 0.16405517
-0.021887247 0.022514708 0.16361082
-0.020733509 0.022512779 0.16359679
-0.019701062 0.022650067 0.16459446
-0.018980151 0.023185072 0.16848224
-0.018251263 0.023781022 0.17281289
-0.027417358 0.038275983 0.27814552
-0.063210219 0.095032632 0.69058698
-0.0056347582 0.0091774669 0.06669119
-0.37820351 0.67198819 4.8832321
-0.034817703 0.068050124 0.49450943
-0.016517423 0.035869773 0.26065993
-0.0095776198 0.023398953 0.17003646
-0.020035828 0.055942006 0.40652171
-0.0075371149 0.024551762 0.17841376
-0.0062074033 0.024264354 0.1763252
-0.0049100723 0.02399146 0.17434214
-0.0036552614 0.02381365 0.17305002
-0.0024224313 0.023672834 0.17202672
-0.0012117043 0.023682388 0.17209616
0 0.023735384 0.17248127
0.0012226056 0.023895448 0.17364444
0.0024488575 0.02393108 0.17390336
0.0036648703 0.023876252 0.17350493
0.0048601204 0.023747388 0.1725685
0.006093021 0.023817241 0.17307611
0.0073811081 0.024043579 0.17472088
0.0087217931 0.024352105 0.1769629
0.0099732643 0.024365546 0.17706054
0.011156181 0.024227122 0.17605466
0.012314431 0.024068173 0.17489959
0.013577708 0.024124736 0.17531064
0.014881176 0.024237331 0.17612883
0.016152702 0.024284583 0.1764722
0.017207878 0.024023047 0.17457166
0.018432878 0.024017662 0.17453253
0.019903144 0.024312548 0.17667542
0.021691291 0.024938207 0.18122201
0.023410924 0.02541996 0.18472281
0.024946745 0.025661919 0.18648109
0.026101742 0.025507523 0.18535914
0.027210003 0.025324337 0.18402794
0.028125677 0.024986712 0.18157448
0.029090077 0.024719851 0.17963523
0.030092066 0.024505839 0.17808004
0.031367876 0.024523018 0.17820488
0.032706857 0.024586363 0.17866519
0.03405121 0.024648899 0.17911965
0.03507458 0.024482923 0.17791352
0.035915826 0.024205644 0.17589857
0.036774505 0.02395821 0.1741005
0.037887949 0.023887362 0.17358568
0.039138716 0.023904817 0.17371251
0.040223114 0.023822675 0.17311561
0.041037187 0.023589972 0.1714246
0.042159524 0.023542712 0.17108114
0.043767672 0.023761824 0.1726734
0.045699306 0.024139969 0.17542131
0.047261875 0.024308389 0.17664519
0.048191797 0.024151122 0.17550236
0.1082451 0.052890427 0.38434634
0.027123136 0.012929592 0.093957298
0.13834198 0.064377405 0.46782038
1.4332496 0.65145159 4.7339954
0.051034246 0.022669286 0.16473411
0.051536493 0.022383662 0.16265851
0.052322041 0.022230828 0.16154791
0.054065388 0.022482794 0.16337889
0.055561218 0.022623476 0.16440122
0.056786276 0.022650411 0.16459695
0.057686839 0.022549428 0.16386312
0.05871968 0.022503098 0.16352645
0.05941879 0.022333112 0.16229118
0.060128447 0.022173433 0.16113082
0.060631391 0.021944847 0.15946972
0.061182182 0.021741578 0.1579926
0.061786357 0.021564199 0.15670362
0.062507302 0.021433087 0.15575084
0.063360818 0.021351164 0.15515552
0.056510285 0.018719934 0.13603479
1.5230808 0.49613574 3.6053398
1.8114117 0.58038491 4.2175655
1.8963462 0.59779835 4.3441062
0.45040271 0.13972987 1.0153948
1.6598231 0.50688636 3.6834629
1.5760109 0.47388685 3.4436605
2.0555632 0.60871744 4.4234529
1.318864 0.38472822 2.795759
0.2036685 0.058538791 0.42539212
1.4999765 0.42487791 3.0875206
0.3185254 0.088935442 0.64627975
0.44681561 0.12299821 0.89380848
0.063119367 0.017134007 0.1245101
0.22645499 0.060630038 0.44058886
0.090709455 0.023957947 0.17409861
1.7278608 0.45027342 3.2720654
0.5757584 0.14806604 1.0759724
1.4739255 0.37412229 2.7186873
0.19290619 0.048337076 0.35125786
2.2782271 0.563636 4.0958533
2.0576169 0.50269359 3.6529946
1.6104996 0.38860145 2.823905
1.9763353 0.47105926 3.4231131
-0.11926995 0.029885825 0.20658162
-0.11779748 0.029881267 0.20655012
-0.12454945 0.031988945 0.22111912
-0.12122817 0.031530041 0.21794702
-0.11879186 0.031292491 0.21630499
-0.11753123 0.031362493 0.21678887
-0.11764029 0.031804647 0.21984521
-0.11738643 0.032159161 0.22229572
-0.11698212 0.03248148 0.22452374
-0.11481033 0.03231515 0.22337398
-0.11356579 0.032408811 0.22402139
-0.11285785 0.032660399 0.22576047
-0.11260838 0.033053748 0.22847944
-0.11167181 0.033253893 0.22986293
-0.10914823 0.032980394 0.22797237
-0.10684928 0.032767616 0.2265016
-0.10465644 0.032581422 0.22521457
-0.12510698 0.039547246 0.27336481
-0.10438432 0.033512231 0.23164864
-0.071117617 0.023194481 0.16032864
-0.10696684 0.035449121 0.24503715
-0.10785845 0.036330584 0.25113013
-0.10761946 0.03685426 0.25474995
-0.10597865 0.036907479 0.25511783
-0.10113407 0.035827585 0.24765322
-0.098226793 0.035408143 0.24475388
-0.095664129 0.035100162 0.24262501
-0.093303412 0.034856427 0.24094023
-0.091671057 0.034880806 0.24110873
-0.090725005 0.035172172 0.24312276
-0.090955809 0.035939757 0.24842858
-0.089826643 0.036189541 0.25015518
-0.086370699 0.035493143 0.24534144
-0.080950409 0.033944625 0.2346375
-0.07594949 0.0325111 0.22472847
-0.07494434 0.032763403 0.22647248
-0.075649634 0.033790693 0.23357347
-0.076903909 0.035114296 0.24272269
-0.072462916 0.033838507 0.23390399
-0.069193751 0.033063322 0.22854562
-0.068717793 0.033617694 0.23237765
-0.064071752 0.032109298 0.22195105
-0.056922209 0.029239491 0.20211394
-0.053133618 0.027993215 0.19349922
-0.066615939 0.036019906 0.24898261
-0.051981349 0.028866483 0.19953556
-0.073839352 0.042143773 0.29131299
-0.12163249 0.071405165 0.49357828
-0.057253737 0.034599751 0.23916598
-0.040152676 0.025000496 0.17281245
-0.038737122 0.024872843 0.17193007
-0.037001986 0.024525134 0.16952659
-0.034986306 0.023962101 0.16563471
-0.032891966 0.023304505 0.16108915
-0.030949386 0.022711303 0.15698873
-0.029356664 0.022340404 0.15442494
-0.028052583 0.022169076 0.15324067
-0.02691778 0.022123165 0.15292332
-0.026011886 0.022269407 0.1539342
-0.025211491 0.022522613 0.15568443
-0.024568848 0.02294617 0.15861221
-0.023945993 0.023429424 0.16195264
-0.023163356 0.023796855 0.16449246
-0.022053389 0.023848979 0.16485275
-0.02078809 0.023729585 0.16402747
-0.019591779 0.023679523 0.16368143
-0.011963104 0.015362854 0.1061936
-0.48435962 0.66347528 4.5861807
-0.014835977 0.021773897 0.15050904
-0.023784742 0.037592668 0.25985408
-0.02307144 0.03950404 0.27306619
-0.001840128 0.0034371887 0.023759089
-0.021348026 0.043863751 0.30320209
-0.021362077 0.048769575 0.33711293
-0.013429151 0.034491066 0.23841469
-0.0087601384 0.025713488 0.17774092
-0.0074966853 0.025672376 0.17745674
-0.0062144985 0.025537841 0.17652678
-0.0049322881 0.025335908 0.17513096
-0.0036707674 0.025141064 0.17378412
-0.0024286341 0.024950551 0.17246723
-0.0012088444 0.024838103 0.17168994
0 0.024817506 0.17154758
0.00121201 0.024903148 0.17213956
0.0024291696 0.024956051 0.17250524
0.0036474599 0.02498143 0.17268068
0.0048620589 0.02497516 0.17263734
0.0061045522 0.025086027 0.17340368
0.007384303 0.025287522 0.17479649
0.0086970562 0.025528323 0.17646098
0.0099377343 0.025523806 0.17642976
0.011152996 0.025462266 0.17600438
0.012311868 0.025297174 0.1748632
0.013513442 0.025241857 0.17448084
0.014678925 0.025133969 0.17373508
0.015861044 0.02506897 0.17328577
0.016921025 0.024834 0.17166159
0.018258108 0.025009936 0.17287771
0.019834923 0.025471738 0.17606984
0.021669755 0.026191061 0.18104209
0.02334504 0.026648341 0.18420295
0.024854494 0.02687815 0.18579149
0.02594367 0.026653206 0.1842366
0.027014075 0.026431318 0.18270284
0.027873533 0.026032591 0.17994668
0.02883102 0.025756108 0.17803553
0.029883033 0.025583588 0.17684302
0.031215834 0.025655648 0.1773411
0.03249741 0.025681682 0.17752106
0.033829108 0.025743932 0.17795134
0.034867588 0.025586562 0.17686357
0.03581899 0.02537835 0.17542431
0.036725178 0.025153054 0.173867
0.03779288 0.025049342 0.17315011
0.038811732 0.024920747 0.17226122
0.039758731 0.02475521 0.17111695
0.040680565 0.0245842 0.16993487
0.042174961 0.024759091 0.1711438
0.044110142 0.025175842 0.17402452
0.046211675 0.025662446 0.17738809
0.047938231 0.025920682 0.17917313
1.2704693 0.66934127 4.6267285
1.2434353 0.63872105 4.415071
1.236791 0.61981285 4.2843699
0.084277205 0.041229576 0.28499374
0.030702906 0.014670979 0.1014111
0.024625873 0.011499714 0.079490177
0.048067272 0.021947498 0.15170904
0.050853297 0.022714822 0.15701306
0.053131126 0.023227325 0.16055566
0.05496709 0.02352933 0.16264322
0.056183312 0.023559131 0.16284923
0.057074212 0.023454055 0.16212292
0.058267433 0.023474902 0.162267
0.059110977 0.023356773 0.16145046
0.059930984 0.02323398 0.16060166
0.060601812 0.02305897 0.15939192
0.061438598 0.022952324 0.15865476
0.06222048 0.022829341 0.15780467
0.062754616 0.022621367 0.15636706
0.063112766 0.022358222 0.15454811
0.063602202 0.022149716 0.15310684
1.9197129 0.6574052 4.5442219
0.07941246 0.026748957 0.18489845
1.8420664 0.61046618 4.2197633
0.48038802 0.15667497 1.0829941
0.32491884 0.10431409 0.72105664
1.9544456 0.61781478 4.2705584
0.057603922 0.017933132 0.12396029
0.045251891 0.013877461 0.095926017
2.0572231 0.62161362 4.2968178
1.9853024 0.59118801 4.0865054
0.022187771 0.0065127388 0.045018405
1.8967801 0.548917 3.7943127
0.27660078 0.078934886 0.5456264
0.31458315 0.088544309 0.61205024
0.06539581 0.018157925 0.12551415
1.5579456 0.42681444 2.9502952
0.28867161 0.078043826 0.5394671
2.2597773 0.60300785 4.1682081
2.3344879 0.61495751 4.2508082
0.32788688 0.085279569 0.58948314
2.1921892 0.56303591 3.8919075
0.91718334 0.23265865 1.6082207
2.425287 0.60771132 4.2007203
-0.13982137 0.036744498 0.2421777
-0.13368243 0.035564929 0.23440333
-0.12338964 0.033236966 0.21906006
-0.12039818 0.03284169 0.21645485
-0.11771385 0.032521129 0.21434207
-0.11639567 0.032574575 0.21469435
-0.1161541 0.032934692 0.21706779
-0.11569199 0.033241045 0.21908695
-0.11240671 0.032733552 0.21574214
-0.11014295 0.032513708 0.21429317
-0.10929903 0.032712705 0.21560472
-0.1103032 0.033478223 0.22065015
-0.076832384 0.023652602 0.1558909
-0.12852453 0.04013928 0.26455221
-0.097112983 0.030775212 0.20283501
-0.10581711 0.034034058 0.2243136
-0.10373339 0.033869386 0.22322823
-0.10326519 0.034235228 0.22563946
-0.10144279 0.034156539 0.22512084
-0.099585779 0.034063511 0.2245077
-0.10144832 0.035260286 0.23239549
-0.10311409 0.036426783 0.24008369
-0.10316545 0.037052345 0.24420667
-0.10071041 0.036783662 0.24243584
-0.098846741 0.036725443 0.24205209
-0.096166044 0.036356285 0.23961908
-0.093853965 0.036115799 0.23803405
-0.091051944 0.035674606 0.23512618
-0.088904575 0.035478316 0.23383248
-0.08801876 0.035787556 0.23587063
-0.088653781 0.036738936 0.24214105
-0.086916119 0.036725085 0.24204974
-0.084290281 0.036327887 0.23943187
-0.079840951 0.035112545 0.23142171
-0.075803496 0.034031466 0.2242965
-0.073629148 0.03375861 0.22249815
-0.072764345 0.034087367 0.22466493
-0.074808031 0.035823528 0.23610772
-0.07162229 0.035077464 0.23119052
-0.070237681 0.035199326 0.23199368
-0.054114342 0.027764875 0.18299431
-0.072656736 0.038187802 0.2516903
-0.054545179 0.029385226 0.1936738
-0.076365553 0.042195443 0.2781041
-0.056211583 0.03187681 0.21009548
-1.1520942 0.67099446 4.4224281
-1.1788613 0.70565575 4.6508751
-0.092475943 0.056936845 0.37526253
-0.041005645 0.025989469 0.17129286
-0.039161202 0.025572589 0.16854525
-0.03719458 0.025047382 0.16508369
-0.035454694 0.024645902 0.16243759
-0.033756189 0.02424738 0.15981099
-0.03206522 0.023826972 0.15704015
-0.03058734 0.023540536 0.15515228
-0.029306486 0.023390131 0.15416098
-0.028239682 0.023405565 0.15426271
-0.02712216 0.023378514 0.15408443
-0.026075466 0.023412807 0.15431044
-0.025099998 0.023516813 0.15499593
-0.024352305 0.023853384 0.15721422
-0.023764545 0.024386127 0.16072544
-0.023153614 0.024947179 0.16442326
-0.022255698 0.025241796 0.16636504
-0.014189175 0.016987024 0.11195903
-0.58486122 0.74137264 4.8862805
-0.035813563 0.048234768 0.31790844
-0.073554926 0.10567036 0.6964581
-0.020390496 0.031385742 0.20685892
-0.0014967162 0.0024810112 0.016351989
-0.040165123 0.072127439 0.47538158
-0.041537091 0.081372201 0.53631246
-0.34458569 0.74255723 4.8940878
-0.007845792 0.018785682 0.12381372
-0.014854438 0.040012795 0.26371858
-0.0085170493 0.026219461 0.17280869
-0.0073298686 0.026325557 0.17350796
-0.0061444445 0.026481662 0.17453682
-0.0049314909 0.026567511 0.17510265
-0.0036909792 0.026512641 0.17474101
-0.0024424994 0.026317043 0.17345184
-0.0012100032 0.026074689 0.17185453
0 0.025961004 0.17110524
0.0012041463 0.025948482 0.1710227
0.0024139357 0.026009282 0.17142344
0.0036350396 0.026110822 0.17209268
0.0048713922 0.026243741 0.17296872
0.0061273384 0.026407937 0.17405091
0.0074061328 0.026599463 0.17531323
0.0086929016 0.026760817 0.1763767
0.0099379765 0.026769524 0.17643407
0.011197856 0.026811739 0.17671232
0.012388622 0.026696583 0.17595334
0.013533726 0.026512908 0.17474276
0.014582869 0.026187519 0.17259818
0.01565579 0.025951607 0.17104332
0.016704166 0.02571162 0.16946158
0.018100958 0.026004165 0.17138973
0.01972962 0.026572434 0.17513511
0.021536442 0.027299689 0.17992832
0.023129724 0.027690487 0.18250401
0.024565971 0.027862044 0.18363473
0.025627388 0.027612582 0.18199055
0.026705883 0.027404398 0.18061845
0.027597986 0.027032569 0.17816778
0.02854681 0.026746217 0.17628048
0.029642459 0.02661556 0.17541933
0.03096102 0.026687499 0.17589347
0.032231603 0.026714141 0.17606905
0.033599943 0.02681683 0.17674586
0.034749635 0.026743907 0.17626524
0.035828907 0.026623687 0.1754729
0.036751628 0.026399029 0.1739922
0.037733521 0.026229998 0.17287815
0.038608488 0.025999529 0.17135915
0.039592218 0.025854049 0.17040031
0.040629834 0.025751278 0.16972296
0.04229008 0.02603773 0.17161092
0.044261865 0.026494754 0.17462312
0.046569321 0.027122568 0.17876095
0.073342681 0.041591614 0.27412438
0.12968414 0.071656384 0.47227696
0.83559608 0.4501622 2.9669545
0.037341565 0.019626429 0.12935498
0.26785362 0.13742979 0.90578002
0.066882387 0.033517834 0.22091122
0.10676891 0.052290734 0.34464073
0.089493923 0.042856202 0.28245908
0.049894314 0.023373615 0.15405212
0.052840449 0.024227092 0.15967728
0.054740913 0.024575561 0.161974
0.055890232 0.024579471 0.16199975
0.056704946 0.024439009 0.16107398
0.057866622 0.024450662 0.16115078
0.058778152 0.024358204 0.16054142
0.05956779 0.024219673 0.15962839
0.060172558 0.0240125 0.15826294
0.061052375 0.023920624 0.15765738
0.062031705 0.023870325 0.15732589
0.062863566 0.023766039 0.15663855
0.06326694 0.023506152 0.15492564
0.063449726 0.0231745 0.15273981
0.076771893 0.027572976 0.18172951
0.60614091 0.21412943 1.4112964
0.1977648 0.068736903 0.45303506
0.23291141 0.079667807 0.52507907
1.9964845 0.67223114 4.4305787
1.9918464 0.66035146 4.3522816
0.20383888 0.066554248 0.43864948
2.0064383 0.64533269 4.2532949
0.047332343 0.014999671 0.098860674
0.22636567 0.070695885 0.46594638
2.1129568 0.65046692 4.2871342
0.31166071 0.094592422 0.62344503
0.69175291 0.20703852 1.364561
0.1349269 0.03982982 0.26251262
1.991429 0.57991683 3.8221488
0.24712612 0.071005173 0.46798491
0.030430801 0.0086284438 0.056868829
0.50412792 0.14108558 0.92987484
0.37991428 0.10495996 0.69177598
0.28372481 0.077393219 0.51008755
0.088511467 0.023841973 0.15713902
2.0408905 0.54295939 3.5785673
1.523816 0.40045279 2.6393266
-0.110677 0.030438289 0.19169819
-0.11089613 0.030875077 0.19444907
-0.10114074 0.028511027 0.17956042
-0.11818587 0.033737678 0.21247749
-0.11632406 0.033631921 0.21181145
-0.10182697 0.029822828 0.18782206
-0.12609245 0.037415553 0.2356405
-0.13178465 0.039625999 0.24956174
-0.10124861 0.030855607 0.19432642
-0.14672513 0.045327146 0.28546715
-0.084081814 0.026335785 0.16586092
-0.096519314 0.030657206 0.19307692
-0.11233916 0.036191769 0.22793321
-0.10919015 0.035687085 0.22475474
-0.10634033 0.035266776 0.22210768
-0.10527264 0.035433773 0.22315942
-0.10437328 0.035663348 0.22460522
-0.10395397 0.036066536 0.22714449
-0.10202385 0.03594996 0.22641031
-0.10035872 0.035924543 0.22625023
-0.098656937 0.035884976 0.22600102
-0.09845788 0.036399662 0.22924249
-0.098336078 0.036960542 0.23277488
-0.096774988 0.0369903 0.23296228
-0.095339291 0.037069835 0.2334632
-0.093679652 0.037063558 0.23342368
-0.09204416 0.037066784 0.23344399
-0.088900663 0.036451805 0.22957087
-0.087337717 0.036474116 0.2297114
-0.086086906 0.03663009 0.23069371
-0.085872412 0.037241485 0.23454426
-0.084314041 0.03728262 0.23480329
-0.082705021 0.037302554 0.23492883
-0.079134725 0.036420655 0.22937471
-0.076148093 0.035776224 0.22531612
-0.073994078 0.035503879 0.22360092
-0.10029522 0.049169883 0.30966842
-0.074391894 0.037281193 0.23479432
-0.068137921 0.034923106 0.21994327
-0.08240369 0.043217029 0.27217779
-0.077592239 0.041662537 0.26238769
-0.02194152 0.012068674 0.076007657
-1.3286097 0.74905574 4.7174997
-0.055851854 0.032296073 0.20339839
-0.68876702 0.40875724 2.5743241
-1.2089306 0.73684537 4.6405997
-0.054159384 0.033927195 0.21367107
-0.041866697 0.026975989 0.16989286
-0.040045306 0.026561303 0.16728121
-0.038191114 0.026099073 0.16437012
-0.036185049 0.025500922 0.160603
-0.034471523 0.025076993 0.15793313
-0.03292302 0.024748852 0.15586653
-0.031520329 0.024511475 0.15437153
-0.030363822 0.024455423 0.15401851
-0.029335309 0.024502115 0.1543126
-0.028499521 0.024719572 0.1556821
-0.027669905 0.024959989 0.15719624
-0.026760722 0.025145676 0.15836568
-0.025642812 0.02514285 0.15834789
-0.024584023 0.025200376 0.15871018
-0.023679884 0.025429452 0.16015288
-0.011375125 0.012826344 0.080779403
-0.58103502 0.68964469 4.3433332
-0.036002353 0.045106079 0.2840749
-0.49572432 0.6576094 4.1415777
-0.077399358 0.1090923 0.68705559
-0.15078907 0.22670196 1.427753
-0.36117893 0.58179647 3.664113
-0.44920731 0.77925605 4.9076991
-0.075178541 0.14128281 0.88978922
-0.053486824 0.1096556 0.69060326
-0.34523255 0.77855343 4.9032745
-0.01578816 0.039560862 0.24915148
-0.0096426709 0.027182167 0.17119135
-0.0083742356 0.026978876 0.16991106
-0.0072170193 0.027125848 0.17083667
-0.0060831546 0.027436934 0.17279588
-0.004926715 0.027776284 0.17493308
-0.0037008596 0.02782006 0.17520876
-0.0024480426 0.027603596 0.1738455
-0.0012115706 0.027322814 0.17207715
0 0.02716889 0.17110774
0.0012020147 0.027107315 0.17071995
0.0024046332 0.027114121 0.17076282
0.0036173146 0.027192036 0.17125352
0.0048560854 0.027378082 0.17242523
0.0061255386 0.0276281 0.17399982
0.0074187224 0.027883967 0.17561126
0.0086962068 0.028016156 0.17644376
0.0099311247 0.027995303 0.17631243
0.011174397 0.028000016 0.17634211
0.012373519 0.027904224 0.17573881
0.013529277 0.027736945 0.17468533
0.014583791 0.027407277 0.17260909
0.015646283 0.027142169 0.17093946
0.01669747 0.026896721 0.16939364
0.018104199 0.027218536 0.17142043
0.019740265 0.027823366 0.17522959
0.021497222 0.028517412 0.17960064
0.022987753 0.028800545 0.1813838
0.024311785 0.028856251 0.18173462
0.025386661 0.028625451 0.18028106
0.026546059 0.028507391 0.17953752
0.027539792 0.028230248 0.1777921
0.028464427 0.027909452 0.17577176
0.029503128 0.027722573 0.17459479
0.030691952 0.027686065 0.17436486
0.031873986 0.027646476 0.17411554
0.033179518 0.027712964 0.17453429
0.034422081 0.027723996 0.17460375
0.035597656 0.027682168 0.17434034
0.036558665 0.027481835 0.17307867
0.037493199 0.027275171 0.1717771
0.038415484 0.027072793 0.17050253
0.03961115 0.027069498 0.17048179
0.040812496 0.027070165 0.17048599
0.042453803 0.027354278 0.17227529
0.04424876 0.027718857 0.17457139
0.063927092 0.038963675 0.24539046
0.078584477 0.04663692 0.29371601
1.2262582 0.70907801 4.465723
0.16528894 0.093188114 0.58689219
0.10414916 0.057286017 0.36078328
1.3833294 0.74276769 4.6778984
1.2347803 0.64758676 4.0784554
0.071958296 0.036881186 0.23227511
1.4607296 0.73203868 4.6103277
0.022779645 0.011167754 0.070333727
0.054324303 0.026065918 0.16416131
0.055878062 0.026252871 0.16533872
0.05665959 0.026076786 0.16422975
0.057076301 0.0257432 0.16212885
0.05786908 0.025588986 0.16115762
0.05876122 0.0254838 0.16049518
0.059542444 0.025335385 0.15956047
0.060100082 0.025099091 0.15807231
0.060812976 0.024935054 0.15703918
0.061729595 0.024858911 0.15655966
0.062824011 0.024855785 0.15653998
0.063203424 0.024574762 0.15477012
0.06336499 0.024219995 0.15253583
0.076659478 0.028813189 0.18146342
1.8992037 0.70213145 4.4219742
1.1476535 0.41744167 2.6290181
1.7821337 0.63793498 4.0176692
0.39569172 0.13942918 0.87811518
1.0730318 0.37228534 2.3446267
0.11944263 0.040812399 0.25703359
1.0466744 0.35230067 2.2187648
1.7642972 0.58511275 3.6849988
0.29412118 0.096128888 0.6054129
0.57518494 0.18530458 1.1670352
2.1133447 0.67125678 4.2275276
0.40310973 0.12626049 0.79517967
0.11933237 0.036864817 0.23217201
2.0355167 0.62032562 3.9067664
0.085857585 0.025816306 0.16258927
0.033801526 0.010029965 0.063168004
0.00896117 0.002624525 0.016529072
2.2740843 0.65748924 4.140821
0.25533068 0.072887428 0.45903987
0.29985276 0.084526874 0.53234422
1.0277394 0.28613743 1.8020734
1.0373287 0.2852852 1.7967061
-0.089298293 0.025650235 0.15466917
-0.14277734 0.041517988 0.25035068
-0.12665103 0.037289005 0.22485018
-0.11048946 0.032942444 0.19864069
-0.12051759 0.036393002 0.21944733
-0.14680767 0.044907626 0.27078995
-0.11009559 0.034120735 0.20574573
-0.12338333 0.038748715 0.23365211
-0.1228601 0.039105803 0.23580533
-0.12114618 0.039088491 0.23570094
-0.10471124 0.034254912 0.2065548
-0.105529 0.035008665 0.21109986
-0.10752609 0.036180776 0.21816763
-0.10650115 0.036355264 0.21921977
-0.10560393 0.036579117 0.2205696
-0.10497155 0.036902763 0.22252116
-0.10425793 0.03720722 0.22435699
-0.10330149 0.037433054 0.22571878
-0.1005688 0.037012238 0.22318129
-0.098341405 0.036766976 0.22170235
-0.096946016 0.036829885 0.22208169
-0.096763529 0.037363186 0.22529747
-0.096347444 0.037822567 0.22806752
-0.094062097 0.037551276 0.22643165
-0.093162373 0.037833337 0.22813244
-0.09206412 0.038043249 0.22939822
-0.090413421 0.0380283 0.22930808
-0.088239305 0.037788656 0.22786303
-0.086670563 0.037804183 0.22795667
-0.085346714 0.037929144 0.22871016
-0.084592968 0.038317129 0.23104969
-0.082971267 0.03831948 0.23106387
-0.080056816 0.037712935 0.22740646
-0.065673687 0.031568751 0.19035742
-0.057922658 0.028422961 0.17138852
-0.070317097 0.035239123 0.21248953
-0.089260608 0.045705032 0.27559826
-0.068529561 0.03586968 0.21629173
-0.064002462 0.034261473 0.20659436
-0.047844965 0.026207756 0.15803099
-0.088577755 0.049674947 0.29953659
-0.055184677 0.031702735 0.19116534
-0.085111715 0.050117731 0.30220652
-0.10709967 0.064682327 0.39003006
-1.1687627 0.72444391 4.3683476
-0.049685437 0.03162929 0.19072247
-0.041991722 0.027474087 0.16566688
-0.040611412 0.027330155 0.16479899
-0.038955197 0.026986623 0.1627275
-0.037100758 0.026480788 0.15967736
-0.035253122 0.025948346 0.15646677
-0.03362979 0.025551978 0.1540767
-0.03229133 0.025352847 0.15287596
-0.031147769 0.025298281 0.15254691
-0.030295059 0.02548448 0.1536697
-0.029428609 0.025672492 0.15480338
-0.028800447 0.026090831 0.15732594
-0.02819141 0.026560659 0.16015898
-0.027658463 0.027144315 0.16367838
-0.02688168 0.027529011 0.16599807
-0.030096672 0.032222398 0.19429888
-0.10733355 0.12038662 0.72592318
-0.64533961 0.76001191 4.5828204
-0.057146747 0.070843495 0.42718145
-0.56974804 0.74554247 4.4955707
-0.044545025 0.061718076 0.37215579
-0.050737362 0.074691288 0.45038339
-0.03936442 0.061812263 0.37272376
-0.035525341 0.059768487 0.36039993
-0.046409208 0.084085837 0.50703192
-0.014737007 0.028926114 0.17442252
-0.033757061 0.072282635 0.43585938
-0.011008774 0.025929911 0.1563556
-0.011044059 0.028903356 0.17428528
-0.0096794683 0.028498601 0.17184463
-0.0083975308 0.028256321 0.17038369
-0.0072222468 0.028351963 0.17096041
-0.0060825106 0.028653318 0.17277756
-0.0049252529 0.029002177 0.17488116
-0.0037041854 0.029082617 0.17536622
-0.0024568331 0.028933948 0.17446975
-0.0012193199 0.028719688 0.17317776
0 0.028577754 0.17232193
0.001210521 0.028512439 0.17192808
0.0024152396 0.028444104 0.17151602
0.0036228653 0.02844415 0.1715163
0.0048507727 0.028563602 0.17223658
0.0061115441 0.028790088 0.17360228
0.0073873396 0.029000059 0.17486838
0.0086222962 0.029012617 0.17494412
0.0098135034 0.028893232 0.17422423
0.011030383 0.028867567 0.17406946
0.012266454 0.028892232 0.17421821
0.01351131 0.028931225 0.17445333
0.0146703 0.028795179 0.17363299
0.015771285 0.02857497 0.17230512
0.016805504 0.02827389 0.17048964
0.018168509 0.028529232 0.17202933
0.019773742 0.029109243 0.17552677
0.021502165 0.029791703 0.17964195
0.022951759 0.030033469 0.18109979
0.0242224 0.030027946 0.18106648
0.025358047 0.029863993 0.18007785
0.026648391 0.029889161 0.18022962
0.027785117 0.029747577 0.17937587
0.02871385 0.029405301 0.17731199
0.029651016 0.029099828 0.17546999
0.030631663 0.028859753 0.17402236
0.031682182 0.028701447 0.17306778
0.032931328 0.028728141 0.17322874
0.034252215 0.028813278 0.17374212
0.035468008 0.028807186 0.17370537
0.036440171 0.028610222 0.1725177
0.037409548 0.028423846 0.17139386
0.038623646 0.028429247 0.17142643
0.040150248 0.028657369 0.17280202
0.041601233 0.028819691 0.17378078
0.042991564 0.028931919 0.17445752
0.078388616 0.051287625 0.30926087
0.033867035 0.021559441 0.13000198
0.19026123 0.11793121 0.71111715
0.050261341 0.030355088 0.18303914
1.145673 0.67462552 4.067946
0.23145381 0.13296659 0.80177951
0.32362998 0.18149367 1.0943946
0.10024846 0.054912511 0.3311187
0.29212117 0.15637684 0.94294173
0.081004538 0.042399321 0.255665
0.032556411 0.016670197 0.10052016
0.057048716 0.028589729 0.17239413
0.057967674 0.028445048 0.17152171
0.058317304 0.028032603 0.16903469
0.0583198 0.027473126 0.16566108
0.058643933 0.027084133 0.16331549
0.05932853 0.02687338 0.16204466
0.059915002 0.026626972 0.16055883
0.060218282 0.026266161 0.15838318
0.060555886 0.025933176 0.1563753
0.061317537 0.025790438 0.1555146
0.062689841 0.025905043 0.15620567
0.063454904 0.025769101 0.15538593
0.063738041 0.02544537 0.15343386
0.063141927 0.024787266 0.14946553
1.9168708 0.74015909 4.463109
0.13664767 0.05191258 0.31302932
0.28477925 0.10647064 0.64201069
1.8322072 0.67430544 4.0660162
0.63527572 0.230203 1.3881084
0.11661356 0.041616656 0.2509456
2.027066 0.71261531 4.2970219
0.32882267 0.11389769 0.68679535
0.53129423 0.18136275 1.093605
1.7959207 0.60429806 3.6438761
0.33814913 0.11217911 0.67643243
2.1489265 0.70299315 4.2390013
2.0969713 0.6765995 4.0798488
0.47020909 0.14966537 0.90247208
0.35840467 0.11255751 0.6787141
0.12997469 0.04028165 0.24289562
0.054957934 0.016811317 0.1013711
2.1876826 0.66062009 3.9834943
2.3586609 0.70323503 4.2404594
0.26856476 0.079071701 0.47679698
1.7717047 0.51519108 3.1065676
2.18451 0.62748343 3.7836821
-0.081932157 0.024535835 0.14191066
-0.10224875 0.030997971 0.17928644
-0.079617396 0.024438709 0.1413489
-0.11546794 0.035891749 0.20759113
-0.12547339 0.039501838 0.22847123
-0.095306404 0.030394265 0.17579474
-0.13853149 0.044760525 0.25888649
-0.13586147 0.044483129 0.25728208
-0.11669856 0.038725235 0.22397949
-0.11025166 0.037087072 0.21450466
-0.11269706 0.038436193 0.22230773
-0.1086861 0.037590314 0.21741532
-0.10644254 0.037340272 0.21596913
-0.10571329 0.037621904 0.21759805
-0.10482216 0.037853364 0.21893676
-0.10418744 0.038185708 0.22085899
-0.10314444 0.038376216 0.22196086
-0.10261681 0.038767286 0.22422272
-0.10066386 0.038623702 0.22339223
-0.098990716 0.038584612 0.2231662
-0.098406799 0.038975678 0.22542801
-0.098285869 0.039565943 0.22884199
-0.096703261 0.039577663 0.22890979
-0.093361855 0.038857758 0.22474599
-0.090563945 0.038343135 0.22176951
-0.088021696 0.037920598 0.21932563
-0.08813218 0.038646195 0.22352235
-0.086952984 0.038822375 0.22454134
-0.086147033 0.039174803 0.22657971
-0.085074596 0.039417066 0.22798093
-0.078191482 0.036924649 0.21356525
-0.052976817 0.025507972 0.14753333
-0.052134153 0.025604282 0.14809036
-0.055825695 0.02797682 0.16181268
-0.028012572 0.014330853 0.082886964
-0.10837723 0.056623988 0.32750255
-0.044471517 0.0237402 0.13730887
-0.076670684 0.041838598 0.2419866
-0.13622566 0.076026767 0.43972453
-1.3997793 0.79937649 4.6234436
-0.039345894 0.023004372 0.13305297
-1.3486111 0.80772424 4.6717257
-1.3262366 0.81418151 4.7090735
-1.2320318 0.77574253 4.4867492
-0.095109828 0.061461348 0.35548091
-0.043543782 0.028899124 0.16714711
-0.041369595 0.028218834 0.16321243
-0.039374515 0.027625328 0.15977973
-0.037784927 0.027289774 0.15783894
-0.036197245 0.026935304 0.15578875
-0.034691025 0.026621187 0.15397197
-0.033087738 0.026209919 0.15159325
-0.031862382 0.026080579 0.15084517
-0.031033624 0.026278149 0.15198788
-0.030559337 0.026800701 0.15501022
-0.029804785 0.027107064 0.15678218
-0.029123724 0.027506404 0.15909189
-0.028492715 0.027986856 0.16187072
-0.028499983 0.029160412 0.16865836
-0.066681445 0.071193017 0.4117671
-0.054067612 0.060349654 0.34905106
-0.7175101 0.83901352 4.8526969
-0.10661925 0.13090792 0.75714684
-0.10203267 0.13186997 0.76271123
-0.59826022 0.81616485 4.7205448
-0.042860862 0.061911631 0.35808527
-0.45535734 0.69886392 4.042098
-0.32244074 0.52786022 3.0530446
-0.46187177 0.81012803 4.6856289
-0.046770856 0.088347085 0.51098293
-0.041532207 0.084989265 0.49156195
-0.01574333 0.035145052 0.20327239
-0.012307051 0.030221377 0.17479479
-0.010926499 0.02981253 0.17243007
-0.00965052 0.02962245 0.17133069
-0.0084302332 0.029573441 0.17104723
-0.0072580427 0.02970493 0.17180775
-0.0060885958 0.029902494 0.17295042
-0.0048928238 0.030037228 0.1737297
-0.0036717036 0.030054301 0.17382844
-0.002442898 0.029994084 0.17348015
-0.0012199952 0.029958384 0.17327368
0 0.029979305 0.17339469
0.0012236547 0.030048247 0.17379344
0.0024374484 0.029927174 0.17309316
0.0036359043 0.02976127 0.17213359
0.0048359223 0.029687908 0.17170928
0.0060659172 0.029791113 0.17230622
0.0073044393 0.029894818 0.17290603
0.0085056499 0.029838001 0.17257741
0.0096568083 0.029641753 0.17144234
0.010852451 0.02961049 0.17126152
0.012103322 0.029721096 0.17190126
0.013411821 0.029940246 0.17316875
0.014634483 0.029947214 0.17320906
0.015800029 0.029845221 0.17261916
0.01685036 0.029555712 0.17094471
0.01822111 0.029829357 0.1725274
0.019817159 0.03041457 0.17591217
0.021594211 0.031192394 0.18041095
0.023093021 0.031504203 0.18221441
0.024403756 0.031540122 0.18242215
0.025556618 0.031378608 0.18148799
0.026838632 0.031383496 0.18151626
0.027916692 0.031160295 0.1802253
0.028779756 0.030726956 0.17771897
0.029606247 0.030292312 0.17520505
0.030456211 0.029915491 0.17302559
0.031453412 0.02970672 0.17181809
0.032646749 0.029691793 0.17173177
0.033998277 0.029816668 0.17245403
0.035321396 0.029908881 0.17298736
0.03645952 0.029843513 0.17260928
0.037802484 0.029944627 0.1731941
0.039518226 0.030325484 0.17539692
0.041406371 0.030811546 0.1782082
0.043043885 0.031088002 0.17980717
0.056843963 0.039881967 0.23066983
0.21819003 0.14883076 0.86080915
0.2334007 0.15490331 0.89593172
0.346645 0.22400703 1.2956146
0.096333712 0.06065603 0.3508231
0.26250452 0.1611525 0.93207586
0.081487425 0.048805304 0.28228071
0.4389616 0.25664777 1.4844025
0.18236843 0.10414573 0.60235935
0.24169567 0.13488899 0.78017259
0.38851184 0.2120079 1.2262139
0.10557577 0.056359444 0.32597244
0.059482519 0.031077908 0.1797488
0.059922006 0.030655285 0.17730443
0.059869569 0.030003391 0.17353398
0.059559926 0.02925125 0.16918375
0.059595831 0.028694982 0.16596639
0.060091365 0.028377164 0.16412818
0.06043401 0.0280005 0.16194965
0.060550164 0.027534794 0.15925609
0.06062606 0.027068049 0.15655652
0.061128497 0.02680501 0.15503515
0.062438913 0.026899286 0.15558043
0.063383251 0.026835322 0.15521047
0.063978933 0.026628412 0.15401374
0.063796848 0.026110083 0.15101582
0.11087796 0.044635013 0.25816056
0.014210303 0.0056282314 0.032552633
0.16099587 0.062752992 0.36295155
1.8935624 0.72654068 4.2021751
1.7145045 0.64771736 3.7462757
0.29795352 0.11085743 0.64117867
1.371242 0.50257349 2.906791
1.844515 0.66609097 3.8525453
1.8844219 0.67063981 3.8788552
1.5832406 0.55540419 3.2123537
0.29303846 0.10135065 0.5861932
0.89550334 0.30541828 1.7664819
0.68350589 0.22992153 1.3298231
0.23973043 0.079552114 0.46011451
2.0676575 0.6769827 3.9155412
2.2300749 0.72055334 4.1675453
2.1821535 0.69591278 4.0250292
0.26570174 0.083648868 0.48380935
1.4972175 0.4653911 2.6917348
0.29933134 0.091880314 0.5314185
1.0887424 0.3300657 1.9090381
1.3957902 0.41799068 2.4175797
-0.13579939 0.042327087 0.23521146
-0.12990625 0.04099014 0.22778207
-0.12067062 0.038551915 0.21423285
-0.1372045 0.044389028 0.24666965
-0.087333173 0.028616663 0.15902269
-0.11815551 0.0392191 0.21794039
-0.11800526 0.039684616 0.22052726
-0.11548685 0.03935552 0.21869847
-0.11602319 0.040072598 0.22268327
-0.11366926 0.039797388 0.22115393
-0.11216096 0.039814714 0.22125022
-0.10899374 0.039235353 0.21803072
-0.10657959 0.038914405 0.2162472
-0.10499974 0.038893186 0.21612929
-0.10515812 0.039524671 0.21963845
-0.10464657 0.039919451 0.22183225
-0.10345901 0.040064409 0.22263779
-0.10148416 0.039904259 0.22174783
-0.099912375 0.039900072 0.22172455
-0.09909036 0.040199921 0.22339083
-0.098673016 0.04067627 0.22603787
-0.098969474 0.041467302 0.23043366
-0.097824104 0.041670524 0.23156296
-0.093845144 0.040653147 0.2259094
-0.088131346 0.038836207 0.21581264
-0.085364208 0.038276773 0.2127039
-0.08552061 0.039031669 0.21689883
-0.086634271 0.040258855 0.2237183
-0.093179837 0.044102438 0.24507707
-0.042343855 0.020419678 0.11347207
-0.094382264 0.046389684 0.25778732
-0.13467336 0.067491002 0.37504724
-0.1199254 0.061302129 0.34065568
-0.1041251 0.054311745 0.30181018
-0.10692872 0.05693607 0.31639355
-0.075145744 0.040864002 0.22708111
-0.11147293 0.061936401 0.34418035
-1.4557719 0.82682794 4.5946798
-1.3926432 0.80894977 4.4953308
-0.0034404406 0.0020449371 0.011363709
-1.3249478 0.80627626 4.480474
-1.2186854 0.75969994 4.2216501
-1.3013815 0.83153206 4.6208205
-1.2617432 0.82687664 4.5949502
-0.045569073 0.030649329 0.1703182
-0.042896993 0.0296319 0.16466437
-0.040640697 0.028853135 0.16033678
-0.038411591 0.028049726 0.15587223
-0.036834691 0.027689334 0.15386951
-0.035576653 0.027554054 0.15311778
-0.034468349 0.027529916 0.15298365
-0.033053562 0.027251532 0.15143667
-0.03190117 0.027178138 0.15102881
-0.031200336 0.027497653 0.15280436
-0.030816445 0.028129296 0.1563144
-0.030208195 0.028595349 0.15890424
-0.0295144 0.029013155 0.161226
-0.027851004 0.028473131 0.15822509
-0.75088531 0.79964405 4.4436188
-0.72425401 0.80481756 4.4723678
-0.0082150362 0.0095437961 0.053034842
-0.71945769 0.87562937 4.865869
-0.058091357 0.074236229 0.41253045
-0.051437318 0.069192514 0.38450256
-0.6095174 0.86546195 4.8093686
-0.57751286 0.8682546 4.8248878
-0.032186985 0.05141557 0.28571615
-0.51452124 0.87669069 4.871767
-0.42140967 0.76932675 4.275146
-0.035050381 0.068910241 0.38293397
-0.0062654433 0.01334458 0.074155785
-0.01351685 0.031406328 0.17452484
-0.012089239 0.03089821 0.17170124
-0.010796882 0.030661276 0.1703846
-0.0096153859 0.030719286 0.17070697
-0.0084746554 0.030942716 0.17194855
-0.007291825 0.031061281 0.17260742
-0.0060832165 0.031095505 0.17279761
-0.0048606582 0.031057712 0.17258759
-0.0036443351 0.031047842 0.17253275
-0.0024351198 0.031118933 0.1729278
-0.0012227693 0.031252075 0.17366767
0 0.03152144 0.17516454
0.0012432141 0.031774614 0.17657141
0.0024803157 0.031696502 0.17613736
0.0036754056 0.031312548 0.17400372
0.0048435121 0.030948156 0.17197879
0.0060248105 0.030796951 0.17113854
0.0072311568 0.03080285 0.17117132
0.0084300088 0.030779701 0.17104268
0.0095857838 0.030624712 0.17018142
0.010799321 0.030668203 0.17042309
0.012048335 0.030793667 0.1711203
0.013333527 0.030980378 0.17215785
0.014524009 0.030934254 0.17190154
0.015680915 0.030829212 0.17131782
0.016736707 0.030554581 0.1697917
0.01809961 0.030839853 0.17137696
0.019684378 0.031443875 0.1747335
0.021543067 0.032388661 0.17998366
0.02317933 0.032912642 0.18289542
0.024567468 0.033047698 0.18364593
0.025694173 0.032835152 0.18246482
0.026865715 0.032697417 0.18169942
0.027862549 0.032369241 0.17987576
0.02875169 0.03194993 0.17754564
0.029514097 0.031430595 0.1746597
0.030237697 0.030913137 0.17178419
0.031180438 0.030650899 0.17032693
0.032334458 0.030608086 0.17008902
0.033689503 0.030751826 0.17088778
0.035193015 0.031016503 0.1723586
0.03665515 0.031228285 0.17353545
0.038683601 0.031893309 0.177231
0.041018143 0.032761246 0.18205412
0.043655172 0.033810854 0.18788679
0.045251921 0.034016725 0.1890308
0.20905167 0.15265815 0.84832072
0.14929485 0.10599288 0.58900207
0.46342462 0.32011923 1.7789015
0.13258451 0.08917509 0.49554563
0.10797468 0.070760623 0.39321652
0.090495139 0.057822868 0.32132146
0.19453633 0.1212694 0.67389363
1.3730341 0.83553839 4.6430836
0.15034038 0.089359663 0.49657136
0.25939801 0.15067747 0.83731419
0.18361756 0.10428841 0.5795303
1.3719281 0.76226842 4.2359223
0.061633032 0.033515837 0.18624738
0.061227519 0.032601666 0.18116733
0.060951632 0.031792425 0.17667039
0.060650803 0.031002801 0.17228244
0.060470596 0.03030459 0.16840251
0.060696151 0.029832674 0.16578007
0.06071623 0.029279474 0.16270593
0.060636025 0.028699303 0.15948191
0.060680229 0.028198039 0.15669639
0.061015949 0.027847724 0.15474969
0.061985116 0.027793735 0.15444969
0.062795073 0.027671453 0.15377015
0.063737057 0.027610507 0.15343149
0.064531691 0.027488824 0.15275531
0.095573954 0.040044609 0.22252776
0.61338681 0.25285825 1.4051324
0.4770087 0.19351743 1.0753757
0.29431966 0.11753674 0.65315121
2.0108666 0.79068643 4.3938417
0.3848004 0.14901361 0.82806814
0.28016025 0.10687253 0.59389025
0.070335202 0.026436148 0.14690559
0.014098457 0.0052222405 0.02901997
0.20295413 0.07410273 0.41178858
0.077170886 0.027779825 0.15437238
0.29363492 0.10423404 0.57922816
0.24312145 0.085120626 0.47301498
0.30679807 0.10596326 0.58883744
0.10448799 0.035607334 0.19786984
0.65481508 0.22021124 1.223713
2.2186141 0.7364198 4.0922818
0.50254142 0.16466892 0.91506457
0.80631256 0.26086193 1.4496088
0.2990551 0.095542274 0.53092808
1.1421527 0.36039066 2.0026896
1.5878013 0.49489912 2.7501526
-0.1285778 0.04164781 0.22270326
-0.13411322 0.043977108 0.23515871
-0.11612027 0.038552992 0.20615436
-0.11395512 0.038313057 0.20487136
-0.11317039 0.038537037 0.20606902
-0.11205804 0.038653813 0.20669347
-0.11314229 0.039541345 0.21143937
-0.11352993 0.04020584 0.21499263
-0.11383621 0.040859096 0.21848579
-0.11358521 0.041327488 0.2209904
-0.11165784 0.041190479 0.22025776
-0.10859392 0.040624421 0.2172309
-0.10623891 0.040311191 0.21555597
-0.1056383 0.040664211 0.21744369
-0.10643571 0.041573685 0.22230689
-0.10608064 0.042053428 0.22487222
-0.10433431 0.041987814 0.22452137
-0.10270089 0.041966323 0.22440644
-0.10150435 0.042125467 0.22525744
-0.10156461 0.04281953 0.2289688
-0.10157894 0.043516308 0.23269467
-0.10379811 0.045195971 0.24167633
-0.097809851 0.043298353 0.23152922
-0.1005208 0.045252644 0.24197939
-0.10667222 0.04884987 0.26121485
-0.14706859 0.068530686 0.36645406
-0.13858266 0.065729596 0.35147575
-0.080604836 0.038925886 0.20814832
-0.14933197 0.073451236 0.39276567
-0.064243689 0.032195464 0.17215875
-0.052058242 0.026590483 0.14218724
-0.090856515 0.047317952 0.25302321
-0.013304196 0.0070673847 0.037791416
-0.060158767 0.032609407 0.17437223
-0.17282875 0.09563455 0.51138645
-0.18686242 0.10560006 0.56467503
-1.5097188 0.87172258 4.6613603
-0.92627442 0.54672289 2.9234903
-0.15403004 0.092980705 0.49719557
-1.4195246 0.87682819 4.6886621
-1.3451508 0.85067129 4.5487933
-0.98759109 0.63978398 3.4211156
-1.2287675 0.81592411 4.3629899
-0.051152531 0.034837145 0.18628463
-0.043633919 0.030498656 0.16308542
-0.041719899 0.029948948 0.16014595
-0.039670132 0.029268548 0.15650767
-0.037679326 0.028594013 0.15290073
-0.036259986 0.02832623 0.1514688
-0.035258107 0.028378217 0.15174679
-0.034429245 0.028577061 0.15281007
-0.033251785 0.028490059 0.15234485
-0.032110687 0.028429447 0.15202074
-0.03142947 0.028785853 0.15392655
-0.031099124 0.029500553 0.15774827
-0.030662714 0.030163858 0.16129515
-0.051393021 0.052501395 0.28074062
-0.80162215 0.85166693 4.5541172
-0.027981512 0.030967064 0.16559012
-0.035160046 0.040603332 0.21711811
-0.08026889 0.096909113 0.51820195
-0.078742243 0.099592946 0.5325532
-0.06746868 0.089600883 0.47912264
-0.021378331 0.02988548 0.15980658
-0.047905598 0.070689328 0.37799692
-0.0014077859 0.0021995192 0.011761485
-0.087799408 0.14575104 0.77937424
-0.074511632 0.1319389 0.7055167
-0.032083716 0.060869075 0.32548511
-0.034405872 0.070295788 0.37589255
-0.014954068 0.033099249 0.17699157
-0.013377371 0.032301161 0.17272395
-0.011895809 0.031596143 0.168954
-0.010630773 0.03137346 0.16776325
-0.0095178559 0.031600151 0.16897546
-0.0084498143 0.032061893 0.17144452
-0.0072719818 0.03219153 0.17213771
-0.0060604084 0.03219378 0.17214975
-0.0048264721 0.032048661 0.17137374
-0.0036151223 0.032006767 0.17114973
-0.0024213446 0.032156348 0.17194957
-0.0012176796 0.032342464 0.1729448
0 0.032819789 0.1754972
0.0012547348 0.033326678 0.17820768
0.0025127113 0.033369731 0.17843789
0.0037111375 0.032856844 0.17569536
0.0048621278 0.032285422 0.17263977
0.0060080332 0.031915553 0.17066199
0.0072011794 0.031878103 0.17046173
0.0084116692 0.031917159 0.17067057
0.0095951241 0.03185669 0.17034723
0.010802762 0.031881031 0.17047738
0.01199547 0.031860851 0.17036946
0.013201004 0.031875301 0.17044675
0.014328855 0.031715408 0.16959175
0.015465061 0.031597182 0.16895956
0.016554929 0.03140793 0.16794758
0.017932659 0.031753641 0.16979618
0.019516371 0.032398071 0.17324215
0.021401724 0.033437971 0.17880279
0.023133049 0.034135044 0.18253025
0.024537252 0.034301441 0.18342005
0.025618065 0.034021731 0.18192434
0.026677387 0.033741474 0.18042573
0.027642651 0.033373136 0.17845613
0.028611291 0.033040736 0.17667867
0.029400218 0.03253714 0.17398579
0.030136503 0.032017905 0.17120931
0.031110706 0.031781659 0.16994601
0.032196019 0.031672217 0.1693608
0.033392642 0.031676181 0.16938199
0.034921441 0.031984109 0.17102858
0.036656346 0.03245398 0.17354111
0.039296538 0.033669189 0.1800392
0.042134684 0.034972753 0.18700974
0.046174724 0.037164681 0.19873065
0.14584199 0.11393148 0.60922557
0.12242771 0.092907704 0.49680522
0.16942324 0.12500015 0.6684131
0.20962887 0.1504837 0.80468118
0.04343411 0.030358996 0.16233861
1.2072624 0.82219934 4.3965454
0.26861715 0.17836672 0.95378006
0.27762419 0.17985125 0.96171832
