# .PCD v0.7 - Point Cloud Data file format
VERSION 0.7
FIELDS x y z
SIZE 4 4 4
TYPE F F F
COUNT 1 1 1
WIDTH 1344
HEIGHT 1
VIEWPOINT 0 0 0 1 0 0 0
POINTS 1344
DATA ascii
-0.10939046 -0.033336841 0.20995305
-0.10947351 -0.033819169 0.21299072
-0.10983194 -0.034401145 0.21665598
-0.10845563 -0.034448508 0.21695429
-0.10658747 -0.034338776 0.2162632
-0.10382921 -0.033934947 0.2137199
-0.10210414 -0.033861887 0.21325977
-0.10064939 -0.03387763 0.21335892
-0.099911205 -0.034138702 0.2150031
-0.098564535 -0.034196686 0.2153683
-0.097657502 -0.034411397 0.21672055
-0.096213259 -0.034440629 0.21690466
-0.094870307 -0.034507643 0.2173267
-0.092744209 -0.03428733 0.21593916
-0.091688678 -0.034462057 0.21703959
-0.091278948 -0.034889549 0.21973191
-0.091544278 -0.035594255 0.22417012
-0.091403626 -0.036163066 0.22775245
-0.090215228 -0.03633026 0.22880542
-0.088144667 -0.036141824 0.22761863
-0.085744105 -0.035808589 0.22551997
-0.083665326 -0.035599701 0.22420441
-0.082726412 -0.03587712 0.22595157
-0.0831374 -0.036762323 0.23152651
-0.083806843 -0.037799511 0.23805864
-0.083304726 -0.038339842 0.24146159
-0.081740469 -0.038403656 0.24186352
-0.079829015 -0.038303599 0.24123338
-0.078270391 -0.038372174 0.24166521
-0.076373711 -0.038274374 0.2410493
-0.073863596 -0.037857719 0.23842524
-0.071107782 -0.037292834 0.23486763
-0.069346756 -0.037235189 0.23450458
-0.068331748 -0.037585068 0.2367081
-0.068084203 -0.038385134 0.24174686
-0.067679346 -0.039135262 0.24647112
-0.06718155 -0.039869711 0.25109664
-0.065835111 -0.040126618 0.2527146
-0.064241707 -0.040243085 0.2534481
-0.061817177 -0.039830688 0.25085086
-0.059773523 -0.039646663 0.24969187
-0.05774679 -0.039463047 0.24853547
-0.056290779 -0.039670162 0.24983987
-0.055009022 -0.040017404 0.2520268
-0.054273099 -0.040798109 0.25694361
-0.053384047 -0.041513581 0.26144958
-0.05197867 -0.041864306 0.2636584
-0.049873237 -0.041656278 0.26234829
-0.047629867 -0.04131262 0.26018393
-0.045786794 -0.041302558 0.2601206
-0.044488125 -0.041803207 0.26327363
-0.043340798 -0.042495776 0.26763541
-0.041995086 -0.043047953 0.27111295
-0.040381812 -0.043365385 0.27311212
-0.038704216 -0.043642037 0.27485445
-0.036840286 -0.043726634 0.27538726
-0.035204429 -0.044106387 0.27777892
-0.033539519 -0.044492275 0.28020921
-0.031718783 -0.044706762 0.28156003
-0.029806484 -0.044812191 0.28222403
-0.027960783 -0.045039959 0.28365847
-0.026400525 -0.04579794 0.28843218
-0.024862846 -0.046724677 0.29426873
-0.023145312 -0.047451187 0.29884422
-0.021196876 -0.047802273 0.30105531
-0.019250294 -0.048236031 0.30378711
-0.017270738 -0.048685279 0.30661643
-0.015313693 -0.049335398 0.31071085
-0.013308983 -0.050023068 0.31504175
-0.01126326 -0.050800834 0.31994006
-0.0090785008 -0.0511836 0.32235071
-0.006840589 -0.051422 0.32385209
-0.0045659379 -0.051484521 0.32424587
-0.0023059996 -0.052003905 0.32751691
0 -0.052771382 0.33235043
0.0023672103 -0.053384304 0.33621055
0.0047784159 -0.053880379 0.33933482
0.0072371988 -0.054403387 0.34262869
0.0097553656 -0.054999687 0.34638417
0.012318018 -0.055558123 0.34990114
0.014864341 -0.055869028 0.35185918
0.017378885 -0.055988729 0.35261306
0.01995185 -0.056243185 0.35421559
0.022736732 -0.056972105 0.35880625
0.025691472 -0.057938293 0.36489123
0.028585166 -0.058603659 0.36908171
0.031444691 -0.059093919 0.37216932
0.034375601 -0.059632588 0.3755618
0.037235178 -0.059979398 0.37774599
0.040541422 -0.060951501 0.38386828
0.044226263 -0.062335718 0.39258596
0.048394814 -0.064198755 0.4043192
0.051550936 -0.064586349 0.40676028
0.040684212 -0.048289087 0.30412126
0.048999805 -0.055251122 0.34796762
0.04834478 -0.051916689 0.32696763
0.049347833 -0.050585043 0.31858101
0.049584359 -0.048617605 0.30619022
0.049840819 -0.04683286 0.29495001
0.049558874 -0.044705212 0.28155026
0.049295828 -0.042757623 0.26928446
0.049020223 -0.040943805 0.2578612
0.049247116 -0.039664276 0.24980278
0.050111629 -0.038968816 0.24542286
0.050766271 -0.038161963 0.24034135
0.051590879 -0.03753081 0.23636639
0.052325856 -0.036875937 0.23224205
0.053634524 -0.036652803 0.23083675
0.055181164 -0.036600634 0.23050822
0.057658289 -0.03715099 0.23397429
0.059929248 -0.037541624 0.23643449
0.062660657 -0.038191784 0.24052915
0.064841241 -0.038480826 0.24234952
0.067245081 -0.038884152 0.24488965
0.064560585 -0.03639856 0.22923554
0.11455254 -0.063008264 0.39682162
0.14093558 -0.075674243 0.47659099
0.1851147 -0.097084336 0.61143023
0.2189375 -0.11221325 0.70671117
0.11526813 -0.057766151 0.36380714
0.2099607 -0.10293354 0.64826816
0.18835147 -0.090374902 0.56917477
0.15065823 -0.0707829 0.4457857
0.23101196 -0.10632003 0.66959602
0.23600775 -0.10644688 0.67039496
0.12083105 -0.053429987 0.33649826
0.17725453 -0.076872446 0.48413727
0.14922111 -0.063493766 0.39987925
0.13591243 -0.056759965 0.35747024
0.29436561 -0.12069829 0.76014918
0.27281359 -0.10986382 0.69191456
0.2767126 -0.10947898 0.68949091
0.22455192 -0.087310299 0.54987413
0.27296394 -0.104335 0.65709442
0.0089635346 -0.0033690291 0.021217907
1.9170381 -0.70872474 4.4634981
1.9591652 -0.7126168 4.4880099
0.11713252 -0.041928917 0.26406536
0.30712888 -0.10822245 0.68157732
1.158012 -0.40176898 2.5303125
1.6458426 -0.56236863 3.5417576
0.22771345 -0.076646186 0.4827123
1.98238 -0.65743786 4.1404972
0.50805193 -0.16604879 1.0457636
1.060717 -0.34172612 2.1521671
1.9188184 -0.60946983 3.838398
1.9724071 -0.61778986 3.8907969
0.41137546 -0.1270844 0.80036849
0.30694497 -0.093541764 0.58911937
0.75355661 -0.22658508 1.4270167
0.21204568 -0.062920555 0.39626917
0.38550982 -0.11290714 0.71108115
0.38563621 -0.11149617 0.70219493
0.32592016 -0.093038104 0.58594739
0.28840882 -0.081300892 0.5120272
0.68233991 -0.18997325 1.1964381
0.45017821 -0.1238076 0.77973151
-0.11666375 -0.030658768 0.20206752
-0.12430917 -0.033071265 0.21796794
-0.12029028 -0.032402102 0.2135576
-0.11956378 -0.032614086 0.21495475
-0.11935639 -0.032974917 0.21733293
-0.11712932 -0.032779895 0.21604757
-0.11446398 -0.03245547 0.21390933
-0.11072004 -0.031812485 0.20967151
-0.11012492 -0.03206908 0.2113627
-0.10943615 -0.032305062 0.21291803
-0.10925371 -0.032699145 0.21551533
-0.10866918 -0.032982282 0.21738148
-0.10737601 -0.033055358 0.21786311
-0.10522939 -0.032864016 0.216602
-0.10361304 -0.032835089 0.21641135
-0.10147214 -0.032636583 0.21510303
-0.10013407 -0.032694191 0.21548271
-0.098623119 -0.032696255 0.21549632
-0.098156795 -0.03305012 0.2178286
-0.097240753 -0.033261392 0.21922106
-0.095974736 -0.03335784 0.21985672
-0.093882933 -0.033165723 0.21859051
-0.092489377 -0.033217981 0.21893494
-0.091864452 -0.033552751 0.22114135
-0.091899216 -0.034144163 0.22503926
-0.091408707 -0.034557737 0.2277651
-0.090048082 -0.034651265 0.2283815
-0.088121459 -0.034526426 0.22755869
-0.086184457 -0.034392826 0.22667816
-0.084467039 -0.034343459 0.22635281
-0.083780386 -0.034719355 0.22883028
-0.083891667 -0.03544715 0.23362705
-0.084357701 -0.036356945 0.23962338
-0.083795115 -0.03685151 0.242883
-0.082230486 -0.036916822 0.24331345
-0.080424622 -0.036874302 0.24303323
-0.079009265 -0.037012879 0.24394655
-0.077471599 -0.037099041 0.24451445
-0.075157613 -0.036808908 0.24260223
-0.072249591 -0.03620759 0.238639
-0.069977254 -0.035903785 0.2366367
-0.068712503 -0.036114745 0.2380271
-0.068346843 -0.03682062 0.24267942
-0.068078771 -0.037616618 0.24792573
-0.067591161 -0.038330011 0.25262758
-0.066296525 -0.038611945 0.25448579
-0.064780846 -0.038777228 0.25557515
-0.062628068 -0.038559698 0.25414142
-0.060699519 -0.03847149 0.25356004
-0.058669753 -0.038311839 0.25250781
-0.056793831 -0.038245808 0.25207263
-0.055097245 -0.038300183 0.25243098
-0.054271091 -0.03898342 0.25693411
-0.05348473 -0.039743349 0.26194271
-0.052086797 -0.04008688 0.26420686
-0.049863063 -0.03979677 0.26229477
-0.047658797 -0.039500482 0.26034197
-0.045978654 -0.039632265 0.26121056
-0.044980258 -0.040387161 0.26618597
-0.044038415 -0.041260689 0.27194327
-0.042761773 -0.041885685 0.27606255
-0.041084792 -0.042159397 0.27786654
-0.039167102 -0.042201132 0.27814159
-0.037185632 -0.042174909 0.27796876
-0.035429101 -0.042415082 0.27955168
-0.033734873 -0.042762473 0.28184134
-0.031814393 -0.042848565 0.28240871
-0.029863071 -0.042901833 0.28275982
-0.028023941 -0.043135401 0.28429922
-0.026707945 -0.044272061 0.29179081
-0.025231054 -0.045309242 0.29862669
-0.023570912 -0.046176005 0.30433938
-0.021633146 -0.046617862 0.30725163
-0.019665573 -0.047086533 0.31034058
-0.017651055 -0.047545932 0.31336838
-0.015660463 -0.04821023 0.3177467
-0.013591872 -0.048815824 0.32173806
-0.011443132 -0.049318232 0.32504937
-0.0091421474 -0.049251657 0.32461059
-0.0068408274 -0.049138289 0.32386339
-0.0045471061 -0.048993416 0.32290855
-0.0023054706 -0.04968122 0.32744175
0 -0.050512224 0.33291879
0.0023861041 -0.051418811 0.33889398
0.0048275469 -0.052015062 0.3428238
0.0073155477 -0.052548248 0.34633794
0.0098286895 -0.052950274 0.34898767
0.012398087 -0.053433951 0.35217547
0.014988534 -0.053832002 0.35479897
0.017562129 -0.054064441 0.35633099
0.020173697 -0.05434107 0.35815415
0.022926101 -0.054893423 0.36179465
0.025760187 -0.055511333 0.36586723
0.028562263 -0.055954184 0.36878598
0.031298868 -0.05620566 0.37044343
0.034143429 -0.056597393 0.3730253
0.037206288 -0.057269182 0.37745294
0.041054573 -0.05897975 0.38872707
0.045113377 -0.060760032 0.40046063
0.049402039 -0.062622242 0.41273421
0.052410696 -0.062745139 0.41354418
0.0049094995 -0.005568218 0.036699325
0.048057947 -0.051780693 0.34127909
0.047770303 -0.049019773 0.3230823
0.048510343 -0.047516484 0.31317431
0.04847515 -0.045417573 0.29934072
0.048416689 -0.043472689 0.28652221
0.047736175 -0.041147199 0.27119526
0.0470149 -0.038966805 0.25682461
0.046716608 -0.037285522 0.24574348
0.046833906 -0.036044165 0.23756191
0.047540538 -0.03532635 0.2328309
0.048463922 -0.034812078 0.22944139
0.049671058 -0.034528233 0.22757061
0.051137328 -0.034436636 0.22696692
0.05283428 -0.034501225 0.22739258
0.054709923 -0.03467527 0.22853972
0.056881074 -0.035021313 0.23082042
0.059358723 -0.035531595 0.23418362
0.062322747 -0.036297563 0.23923203
0.065171674 -0.036957949 0.24358456
0.069413781 -0.038354274 0.2527875
0.062843539 -0.033855814 0.22313882
0.086697139 -0.045567326 0.30032769
0.13018608 -0.06679561 0.44024026
0.14617439 -0.07325469 0.48281112
0.17122602 -0.083859012 0.55270267
0.15848942 -0.075896271 0.50022143
0.23035933 -0.1079147 0.71125025
0.12747292 -0.058445722 0.38520736
0.17362277 -0.077946767 0.51373595
0.17036891 -0.074925035 0.4938201
0.30690622 -0.13227212 0.87178653
0.20896527 -0.088295095 0.58194023
0.17517702 -0.072594963 0.47846293
0.25673264 -0.10438495 0.6879862
0.28866372 -0.11519434 0.75922924
0.43974945 -0.17229602 1.1355783
0.22424269 -0.086290486 0.56872821
0.15382689 -0.058155399 0.3832939
0.30752343 -0.11425701 0.75305146
0.4547323 -0.1660873 1.0946575
0.049416546 -0.017748179 0.11697569
1.2177722 -0.43019849 2.8353763
0.40694243 -0.14144057 0.93221438
0.40870339 -0.13979781 0.92138726
1.7502824 -0.58933306 3.8842094
0.69142473 -0.22922616 1.5107967
2.0584242 -0.67208415 4.4296098
1.7164034 -0.55204844 3.6384721
0.36180556 -0.11465658 0.75568503
1.8898163 -0.59020537 3.8899584
0.32544664 -0.1001877 0.66032273
0.79586738 -0.24155442 1.5920504
0.14409986 -0.043128438 0.28425333
1.9374895 -0.57193822 3.7695627
0.7313205 -0.21296521 1.4036231
0.87919021 -0.25261211 1.6649302
0.75199199 -0.21322213 1.4053164
0.61933333 -0.17332706 1.1423738
0.54611242 -0.15087599 0.99440187
0.85088342 -0.23210025 1.5297394
0.57054585 -0.1536856 1.0129198
0.62715489 -0.16684856 1.0996748
0.8962965 -0.23554316 1.5524311
-0.12380332 -0.031021765 0.21443366
-0.10908693 -0.027671695 0.19127674
-0.12032823 -0.030904775 0.21362495
-0.119582 -0.031101888 0.21498749
-0.11914835 -0.031386402 0.21695413
-0.11779822 -0.031433739 0.21728137
-0.1151605 -0.03113422 0.21521096
-0.11313475 -0.030994371 0.21424428
-0.11114358 -0.030860342 0.21331783
-0.10921738 -0.030740928 0.21249239
-0.10849012 -0.030960342 0.21400906
-0.10730533 -0.031053534 0.21465324
-0.10720502 -0.031467706 0.21751615
-0.10514232 -0.031309526 0.21642275
-0.10382621 -0.031372286 0.21685657
-0.10210697 -0.031313289 0.21644875
-0.10138571 -0.031563189 0.21817617
-0.10025507 -0.031691372 0.21906219
-0.099623278 -0.031983715 0.22108299
-0.098608769 -0.032160517 0.2223051
-0.096964151 -0.032134201 0.22212324
-0.094461456 -0.031817999 0.21993749
-0.092723548 -0.031753156 0.21948928
-0.092157155 -0.032094091 0.22184595
-0.091852412 -0.032539479 0.22492465
-0.091237664 -0.032888751 0.22733893
-0.08989539 -0.032983553 0.22799425
-0.088517323 -0.033068433 0.22858097
-0.087081432 -0.033134457 0.22903733
-0.085684277 -0.033217989 0.22961473
-0.084788598 -0.033502884 0.23158404
-0.084558703 -0.03406718 0.23548467
-0.08448182 -0.034716927 0.23997596
-0.083554909 -0.035036758 0.24218674
-0.081932038 -0.035072006 0.24243036
-0.080087408 -0.035011798 0.2420142
-0.078799456 -0.035197631 0.24329875
-0.077515401 -0.035393503 0.24465266
-0.075486243 -0.035250332 0.24366303
-0.072746612 -0.034761008 0.24028064
-0.070493422 -0.034486357 0.23838216
-0.069186151 -0.034672361 0.23966786
-0.068527363 -0.035200763 0.24332041
-0.067983091 -0.035816595 0.24757725
-0.067182615 -0.036326312 0.25110063
-0.065916777 -0.036605157 0.25302806
-0.064613879 -0.036878344 0.25491643
-0.062795743 -0.036864657 0.25482184
-0.060951106 -0.036834154 0.25461099
-0.058905415 -0.036676619 0.25352204
-0.056753725 -0.036441181 0.25189462
-0.055225339 -0.036603678 0.25301787
-0.054335691 -0.037214484 0.25723994
-0.053487159 -0.037896544 0.26195458
-0.052021291 -0.038174305 0.26387459
-0.049986385 -0.03803961 0.26294351
-0.047855634 -0.037818804 0.26141724
-0.046380684 -0.038119324 0.26349455
-0.04538592 -0.038855985 0.26858664
-0.044396684 -0.03966165 0.27415565
-0.043091692 -0.040245648 0.27819246
-0.041474279 -0.040579583 0.28050074
-0.039569639 -0.040651832 0.28100017
-0.037513811 -0.040568192 0.28042197
-0.035534214 -0.040562272 0.28038108
-0.033668891 -0.040693771 0.28129005
-0.031737238 -0.040756531 0.28172386
-0.029829087 -0.040859848 0.28243804
-0.028102327 -0.041244145 0.28509444
-0.026451742 -0.041807961 0.28899172
-0.025179204 -0.043113057 0.298013
-0.02363597 -0.044149805 0.30517939
-0.021728711 -0.044645946 0.30860889
-0.019735394 -0.045055863 0.3114424
-0.017711533 -0.045489822 0.31444207
-0.015777934 -0.046312708 0.32013017
-0.013779084 -0.047186431 0.32616967
-0.011585345 -0.047608778 0.32908908
-0.0092210975 -0.047366433 0.32741392
-0.0068688146 -0.047044467 0.32518837
-0.0045700567 -0.046950437 0.32453841
-0.0023155429 -0.047577418 0.32887232
0 -0.048556615 0.33564088
0.0024110775 -0.049540367 0.34244093
0.0048883799 -0.050220728 0.34714383
0.00737949 -0.050542083 0.34936514
0.0098506473 -0.050600272 0.34976736
0.012333862 -0.050684735 0.35035118
0.014958251 -0.051224489 0.35408217
0.017714452 -0.051996935 0.35942161
0.020500701 -0.052653443 0.36395961
0.02334599 -0.053298846 0.36842087
0.025945144 -0.053309441 0.36849412
0.028599061 -0.053420398 0.36926112
0.031243861 -0.053497255 0.36979237
0.034095943 -0.053889908 0.3725065
0.037185334 -0.054574747 0.37724036
0.041033912 -0.056208208 0.38853145
0.045191556 -0.058034379 0.40115458
0.049644519 -0.060002651 0.41476002
0.063186035 -0.072126798 0.49856651
0.056141395 -0.060712434 0.41966629
0.046626389 -0.047901582 0.33111304
0.046625331 -0.045619514 0.31533858
0.047143053 -0.044029433 0.30434734
0.046926174 -0.041921362 0.28977558
0.046770345 -0.040041227 0.27677944
0.046271428 -0.038029529 0.26287386
0.045545723 -0.035993356 0.24879907
0.045092911 -0.034315679 0.23720235
0.045245815 -0.03320232 0.22950643
0.045801368 -0.032451034 0.22431324
0.046709854 -0.031991553 0.22113718
0.048111055 -0.031888288 0.22042339
0.050044451 -0.032133199 0.22211629
0.052056339 -0.032412142 0.22404443
0.054268915 -0.032795954 0.22669749
0.056503665 -0.033170853 0.22928892
0.059082534 -0.033721328 0.23309401
0.062266398 -0.034578018 0.23901574
0.066099852 -0.035740852 0.24705371
0.071074016 -0.037445035 0.25883362
0.15681255 -0.080550611 0.556795
0.21630839 -0.10840207 0.74931425
0.19794449 -0.096837185 0.66937357
0.24022987 -0.11479068 0.79347461
0.1488755 -0.06952142 0.48055714
0.1171425 -0.053487219 0.36972299
0.20596127 -0.091997452 0.63591963
0.24281421 -0.10615104 0.7337544
0.23362808 -0.10000733 0.6912868
0.21384135 -0.089669272 0.61982638
0.26641449 -0.10948027 0.75676721
0.2980397 -0.12007484 0.8300007
0.22280949 -0.088039674 0.60856205
0.14109622 -0.054700032 0.37810636
0.21991865 -0.083678976 0.57841933
0.25825331 -0.096478663 0.66689539
0.2438691 -0.089478105 0.618505
0.18152086 -0.065433435 0.45229957
0.25349292 -0.089801975 0.62074375
0.21340325 -0.074318521 0.51371646
0.12627095 -0.043241456 0.29890054
1.8423586 -0.62057227 4.2896199
0.16032471 -0.053132076 0.36726812
0.43612069 -0.14223751 0.98319715
1.9851407 -0.63732266 4.4054041
0.40242708 -0.12721018 0.87932271
1.8354168 -0.57139814 3.9497104
0.46208137 -0.14170714 0.97953093
2.0969145 -0.63360691 4.3797197
0.26753604 -0.079667516 0.55069065
0.58422571 -0.17148677 1.1853786
0.54538441 -0.15783104 1.0909853
0.2768681 -0.079011172 0.54615372
0.84628165 -0.2381991 1.6465181
1.2835178 -0.35638407 2.4634554
2.2336805 -0.6119386 4.2299404
0.66670167 -0.18024617 1.2459266
0.44595191 -0.11899956 0.82256788
0.53153038 -0.14001724 0.96784979
0.28909284 -0.075189695 0.51973832
0.68737167 -0.17654268 1.2203267
0.32787675 -0.08317133 0.57491028
0.31910348 -0.0799587 0.55270338
-0.12684619 -0.030233776 0.21970406
-0.12482835 -0.030120142 0.21887828
-0.11964809 -0.029231062 0.21241748
-0.11861134 -0.029344581 0.21324241
-0.11825699 -0.029632006 0.21533108
-0.11696701 -0.029689401 0.21574818
-0.11551298 -0.029706124 0.21586969
-0.11250134 -0.029317385 0.21304478
-0.11018275 -0.029101186 0.2114737
-0.10736417 -0.0287452 0.2088868
-0.10644006 -0.028893584 0.20996508
-0.10590578 -0.029153461 0.21185358
-0.10546774 -0.029447636 0.2139913
-0.10406549 -0.029477213 0.21420623
-0.10275915 -0.02953523 0.21462785
-0.10205196 -0.029769761 0.21633214
-0.10208704 -0.030231206 0.21968539
-0.10200216 -0.030670779 0.22287968
-0.10120892 -0.030907765 0.22460182
-0.099664994 -0.03091939 0.22468629
-0.097202823 -0.030641919 0.22266997
-0.094362915 -0.030234324 0.21970806
-0.092202507 -0.030034492 0.21825589
-0.091534123 -0.03032214 0.22034618
-0.090853713 -0.03061565 0.22247908
-0.090068661 -0.030883582 0.22442609
-0.089030489 -0.031072736 0.22580065
-0.088343963 -0.031393737 0.22813329
-0.087369353 -0.03162235 0.22979461
-0.086375177 -0.031852379 0.23146619
-0.085387163 -0.03209357 0.23321889
-0.084752306 -0.032479562 0.23602383
-0.083834112 -0.032770235 0.2381361
-0.082457453 -0.032889903 0.23900571
-0.080514789 -0.032784097 0.23823683
-0.078438044 -0.032618031 0.23703003
-0.077114232 -0.032764651 0.23809551
-0.07604517 -0.033028428 0.24001235
-0.074910447 -0.033275034 0.24180441
-0.072838269 -0.033107009 0.24058339
-0.070675537 -0.032888845 0.23899801
-0.069062687 -0.032922167 0.23924017
-0.068290778 -0.033368055 0.24248035
-0.067535229 -0.033845004 0.24594627
-0.06656976 -0.034239091 0.24881002
-0.065336183 -0.034512855 0.25079942
-0.063970797 -0.034730259 0.2523793
-0.062106173 -0.034681313 0.25202361
-0.060437027 -0.034741852 0.25246355
-0.058386274 -0.034580048 0.25128773
-0.056738414 -0.034654215 0.25182667
-0.055344936 -0.034893539 0.25356582
-0.054708321 -0.035641905 0.25900406
-0.053522963 -0.03607206 0.26212993
-0.051956017 -0.036266584 0.26354349
-0.050004017 -0.036196776 0.26303625
-0.048390623 -0.036376145 0.26433969
-0.047165707 -0.036873568 0.26795435
-0.046036661 -0.037490513 0.2724376
-0.044626966 -0.037922621 0.27557766
-0.043044392 -0.038240425 0.27788711
-0.041229166 -0.038371965 0.27884299
-0.039422866 -0.038525384 0.27995786
-0.03756861 -0.038645625 0.28083163
-0.035541911 -0.038591985 0.28044182
-0.03354558 -0.03856694 0.28025982
-0.03163993 -0.03864954 0.28086007
-0.029769948 -0.03878963 0.28187808
-0.028032091 -0.039134182 0.2843819
-0.02639834 -0.039688263 0.28840828
-0.024954962 -0.04064475 0.29535896
-0.023391601 -0.041561965 0.30202422
-0.02150579 -0.042032398 0.30544278
-0.019435328 -0.042206388 0.30670711
-0.017516105 -0.042793356 0.31097251
-0.0157315 -0.043923896 0.319188
-0.013850673 -0.045117851 0.32786429
-0.01166019 -0.045578957 0.33121505
-0.0092640445 -0.045265719 0.32893881
-0.0069112419 -0.045026027 0.32719702
-0.0046118824 -0.045068905 0.32750857
-0.0023331051 -0.045599818 0.33136666
0 -0.0465158 0.33802295
0.0024222946 -0.047342997 0.34403408
0.0049029668 -0.047913484 0.3481797
0.0073647131 -0.047980346 0.34866557
0.0098086353 -0.047926683 0.34827563
0.012238068 -0.047837846 0.34763002
0.014837396 -0.04833205 0.35122135
0.017657053 -0.049300227 0.35825694
0.020524761 -0.050143763 0.36438674
0.023381615 -0.050776273 0.36898312
0.025723657 -0.050276089 0.36534837
0.028401678 -0.050463818 0.36671257
0.030974461 -0.050448854 0.36660382
0.033822995 -0.050850768 0.36952445
0.036691699 -0.05122342 0.37223247
0.040483885 -0.052749671 0.38332346
0.044867549 -0.054807648 0.39827847
0.049658902 -0.057092227 0.41488016
0.062489089 -0.067851663 0.49306726
0.048785377 -0.050183956 0.36467886
0.044191189 -0.043185156 0.31381968
0.044618856 -0.04152675 0.3017683
0.044683591 -0.039696682 0.28846949
0.044467445 -0.037787065 0.27459258
0.044262748 -0.036045905 0.26193988
0.04409289 -0.034471273 0.25049728
0.043908939 -0.033007178 0.23985793
0.043880448 -0.031764064 0.23082443
0.044072442 -0.030763652 0.22355458
0.044479504 -0.029977178 0.21783939
0.045219388 -0.029459964 0.2140809
0.046640106 -0.029405368 0.21368416
0.048841018 -0.029830707 0.21677501
0.051208973 -0.030329198 0.22039749
0.053788111 -0.030919764 0.22468902
0.056127679 -0.031342804 0.22776319
0.059061695 -0.032065071 0.23301178
0.062053576 -0.032778867 0.2381988
0.066559277 -0.0342337 0.24877085
0.060272951 -0.030205544 0.21949889
0.045172103 -0.022071872 0.16039279
0.1466399 -0.069903202 0.50797552
0.11652153 -0.054223269 0.39403188
0.13961466 -0.063458726 0.46114451
0.22971867 -0.10204046 0.74151188
0.23425844 -0.10174464 0.73936212
0.22555816 -0.095836185 0.69642633
0.20176071 -0.083901085 0.60969585
0.091621295 -0.037306454 0.2711001
0.1933898 -0.077137627 0.56054688
0.089609444 -0.035027776 0.25454131
0.18119735 -0.069440119 0.50461036
0.23134638 -0.086953714 0.63187891
0.24515793 -0.090406336 0.65696853
0.14936757 -0.054061908 0.39285931
0.14727044 -0.052333731 0.38030091
0.52407795 -0.18290965 1.3291755
0.14557825 -0.049917229 0.36274058
0.21693766 -0.073103093 0.53122854
0.35704166 -0.11827575 0.85949105
0.21368936 -0.069608204 0.50583178
1.5448349 -0.49497241 3.5968864
0.29690045 -0.093593992 0.68013269
1.7205511 -0.53377205 3.8788369
1.6305493 -0.49794659 3.6184988
1.3034332 -0.39192614 2.8480649
2.0539391 -0.60823649 4.4199581
0.75133955 -0.21917461 1.5927072
0.07982365 -0.022943066 0.16672364
0.25255397 -0.071537517 0.5198518
1.0069629 -0.28115401 2.0431015
0.73829353 -0.20323546 1.47688
0.42105034 -0.11429582 0.83056957
1.6916442 -0.45291319 3.2912481
0.83719474 -0.22111772 1.6068274
0.78585929 -0.20479169 1.4881887
0.54414338 -0.1399357 1.0168906
0.85198754 -0.21625756 1.5715094
0.70954144 -0.17779191 1.2919856
0.40811864 -0.10096902 0.73372585
0.54236287 -0.13250394 0.96288508
1.3355516 -0.32225856 2.3418016
1.0241158 -0.24409789 1.7738206
-0.13236383 -0.029931007 0.22926086
-0.13891757 -0.031800803 0.2435828
-0.12084885 -0.028010344 0.21454926
-0.11939887 -0.028024575 0.21465826
-0.11880891 -0.028243618 0.21633606
-0.11669545 -0.028101476 0.21524727
-0.11447251 -0.027928881 0.21392527
-0.11189569 -0.027664192 0.21189786
-0.10979442 -0.027511513 0.21072838
-0.10712428 -0.027210152 0.20842007
-0.10530572 -0.027119732 0.20772746
-0.10437659 -0.027259048 0.20879459
-0.10358796 -0.027439559 0.21017723
-0.10182111 -0.027362429 0.20958646
-0.10068321 -0.027454533 0.21029194
-0.10089347 -0.027922491 0.21387634
-0.10197131 -0.028648375 0.21943632
-0.10216025 -0.029143015 0.2232251
-0.1013086 -0.029351633 0.22482304
-0.099340305 -0.029238215 0.22395431
-0.096599348 -0.028890058 0.22128755
-0.094012417 -0.028577309 0.21889199
-0.092077509 -0.028455632 0.21796
-0.091226026 -0.028670328 0.21960449
-0.090364039 -0.028889069 0.22127998
-0.089485072 -0.029109964 0.22297195
-0.088303082 -0.029238412 0.22395581
-0.087824725 -0.029608745 0.22679242
-0.086921409 -0.029846879 0.22861646
-0.086143054 -0.030137718 0.23084417
-0.085015133 -0.030315084 0.23220274
-0.084151022 -0.030595329 0.23434931
-0.083102964 -0.030818567 0.23605922
-0.081640586 -0.030894129 0.23663802
-0.079581983 -0.030742519 0.23547673
-0.077394165 -0.03053348 0.23387556
-0.075900152 -0.030595019 0.23434696
-0.074790701 -0.030817756 0.23605302
-0.073542252 -0.030992042 0.237388
-0.071955346 -0.031028481 0.23766711
-0.07030227 -0.031037446 0.23773578
-0.069018625 -0.031213922 0.23908752
-0.067736499 -0.031399928 0.24051227
-0.06695959 -0.031835675 0.24384992
-0.065714791 -0.032066051 0.24561453
-0.064332001 -0.03223972 0.24694477
-0.062844612 -0.032369163 0.24793623
-0.060977302 -0.032304727 0.24744269
-0.05962548 -0.032517631 0.24907346
-0.057882395 -0.032523587 0.2491191
-0.056740008 -0.032877997 0.25183374
-0.055630397 -0.033274867 0.25487363
-0.054791562 -0.033865567 0.25939816
-0.05328745 -0.034071628 0.26097652
-0.051619291 -0.034183767 0.26183549
-0.050094575 -0.034402728 0.26351261
-0.048777379 -0.034786526 0.26645237
-0.047566362 -0.035279773 0.2702305
-0.046208367 -0.035700582 0.27345374
-0.044451009 -0.035836015 0.2744911
-0.042705514 -0.035993759 0.27569935
-0.040879603 -0.036095522 0.27647883
-0.039362311 -0.036493581 0.27952784
-0.037443973 -0.036542159 0.27989992
-0.035721239 -0.036797635 0.28185681
-0.033699151 -0.03675665 0.28154284
-0.031800553 -0.036853656 0.28228587
-0.029938884 -0.037009247 0.28347763
-0.028040009 -0.037137788 0.28446221
-0.026260652 -0.037456576 0.28690401
-0.024650557 -0.038090035 0.29175612
-0.023103928 -0.038945656 0.29830986
-0.021172876 -0.03925959 0.30071446
-0.019189237 -0.039534938 0.30282354
-0.017300848 -0.040099904 0.30715096
-0.015671166 -0.041511573 0.31796384
-0.013893364 -0.042936053 0.32887486
-0.011692023 -0.043359626 0.33211929
-0.0093344487 -0.043270767 0.33143866
-0.0069336724 -0.042855639 0.3282589
-0.0046392335 -0.043011259 0.32945091
-0.0023382069 -0.04335596 0.33209121
0 -0.044082418 0.33765563
0.0024056993 -0.044607434 0.34167707
0.0048708837 -0.045158934 0.34590131
0.0073433518 -0.045387786 0.34765425
0.0097209308 -0.045062345 0.34516153
0.012165467 -0.045115385 0.34556779
0.01474358 -0.04556356 0.3490006
0.01762031 -0.046674691 0.35751149
0.0208597 -0.048348609 0.37033311
0.023429893 -0.04827182 0.36974496
0.025782172 -0.047806334 0.36617947
0.028235503 -0.04759581 0.36456695
0.030871747 -0.047703017 0.36538813
0.033950493 -0.048424892 0.37091741
0.036810018 -0.048753291 0.37343284
0.038923237 -0.048115343 0.3685464
0.043077126 -0.049922079 0.38238534
0.052951466 -0.057755716 0.44238818
0.035892289 -0.036973841 0.28320646
0.040854771 -0.03987081 0.3053962
0.041198239 -0.038195703 0.29256549
0.042102836 -0.037175599 0.28475183
0.041948725 -0.035355907 0.27081364
0.041627403 -0.033559646 0.25705495
0.041818723 -0.032309145 0.24747652
0.041786391 -0.030992795 0.23739377
0.042130157 -0.03004593 0.23014112
0.042507261 -0.029192097 0.22360106
0.043105241 -0.028545519 0.21864851
0.043604337 -0.027880309 0.21355323
0.04429685 -0.027378997 0.20971335
0.045611452 -0.027282119 0.20897132
0.047820486 -0.027709579 0.21224551
0.050342541 -0.028287014 0.21666846
0.053228617 -0.029029008 0.22235185
0.055685494 -0.029501216 0.22596881
0.058632221 -0.030199502 0.2313174
0.061674479 -0.030907914 0.2367436
0.065811083 -0.032113038 0.24597444
0.097152881 -0.046190955 0.35380626
0.13177411 -0.061085202 0.46789089
0.1192706 -0.053940564 0.41316551
0.18551247 -0.081901096 0.62733322
0.17236467 -0.07432685 0.56931716
0.16314134 -0.068750724 0.52660608
0.18791632 -0.077431545 0.59309798
0.20931625 -0.084374465 0.64627838
0.16383436 -0.064635791 0.49508709
0.17016639 -0.065735273 0.50350875
0.17752853 -0.067179687 0.5145725
0.42043626 -0.15591794 1.1942757
0.25941595 -0.094317526 0.72243863
0.25638092 -0.091421477 0.70025593
0.22045836 -0.077128805 0.59077919
0.2153098 -0.073932596 0.56629735
0.26588002 -0.089637332 0.68658996
0.12851696 -0.042553797 0.32594693
0.11583997 -0.037683353 0.28864104
0.1882077 -0.060169354 0.46087581
0.13768597 -0.043271665 0.33144552
0.055682272 -0.017208049 0.13180752
0.37423036 -0.11375621 0.87133199
0.32544535 -0.097331256 0.74552274
0.018870816 -0.0055541298 0.042542655
0.23825853 -0.06902945 0.528741
0.081973054 -0.023384262 0.1791151
0.11896153 -0.033421699 0.25599831
0.45180264 -0.12503739 0.9577418
0.091770723 -0.025024254 0.19167687
1.8328853 -0.49255201 3.772773
0.6744681 -0.1786608 1.3684779
0.67868716 -0.17724632 1.3576436
1.4834962 -0.38204971 2.9263644
0.77763516 -0.19752359 1.5129603
1.974124 -0.49466205 3.7889349
0.34522602 -0.085350916 0.65375763
0.5533374 -0.13500266 1.0340723
0.51086891 -0.12302253 0.94230872
2.2932434 -0.54515684 4.1757073
1.7402089 -0.4084512 3.1285908
0.93276852 -0.21619707 1.6559926
0.60540885 -0.13858929 1.0615445
0.49917188 -0.11287615 0.86459112
-0.12905675 -0.027605722 0.22353283
-0.11984208 -0.025951149 0.21013521
-0.12070379 -0.026464468 0.21429172
-0.11923556 -0.026473474 0.21436466
-0.11827909 -0.026597794 0.21537131
-0.11661611 -0.026564406 0.21510096
-0.11431025 -0.026381765 0.21362205
-0.1118587 -0.026160181 0.21182781
-0.10991748 -0.026053572 0.21096456
-0.10730773 -0.025783412 0.208777
-0.1057039 -0.025750801 0.20851292
-0.10432667 -0.025773251 0.20869473
-0.10307704 -0.025828319 0.20914061
-0.10142816 -0.02578349 0.20877762
-0.10072202 -0.025980514 0.21037298
-0.1004857 -0.026306415 0.21301192
-0.10113183 -0.026876714 0.21762982
-0.1013359 -0.02734527 0.22142388
-0.10085062 -0.027639542 0.22380669
-0.099150151 -0.02760483 0.22352563
-0.096877187 -0.027407037 0.22192402
-0.094438918 -0.027155226 0.21988502
-0.092575356 -0.027063029 0.21913847
-0.091359466 -0.027160252 0.21992572
-0.090183772 -0.027272984 0.22083855
-0.088873357 -0.027348215 0.22144772
-0.087655619 -0.02745516 0.2223137
-0.086767226 -0.027671024 0.22406162
-0.086175561 -0.027991269 0.22665475
-0.085409559 -0.028265903 0.22887854
-0.084561475 -0.02852341 0.23096368
-0.083715171 -0.028791627 0.23313554
-0.082728371 -0.029021287 0.23499516
-0.081580572 -0.029202694 0.23646407
-0.079582743 -0.029081037 0.23547897
-0.07713338 -0.028785698 0.23308752
-0.075325437 -0.028722091 0.23257247
-0.074256353 -0.028943654 0.23436654
-0.073029138 -0.029112246 0.23573168
-0.07168112 -0.029239407 0.23676136
-0.070101149 -0.029275754 0.23705566
-0.068869852 -0.029463036 0.23857215
-0.067715034 -0.029693224 0.24043606
-0.066905275 -0.030090405 0.24365215
-0.065503024 -0.030235004 0.24482304
-0.063712724 -0.03020346 0.2445676
-0.061915472 -0.030166777 0.24427058
-0.060196251 -0.030167107 0.24427323
-0.059268422 -0.030575719 0.24758191
-0.058184396 -0.030926077 0.25041887
-0.057085928 -0.031290416 0.25336906
-0.055760961 -0.031550106 0.25547183
-0.054572102 -0.031906683 0.25835916
-0.052886728 -0.031987548 0.25901398
-0.051343042 -0.032162942 0.26043421
-0.050048478 -0.032513171 0.26327011
-0.048927061 -0.033007149 0.26727003
-0.047762562 -0.033510417 0.27134517
-0.046259388 -0.033808112 0.2737557
-0.044331457 -0.033807762 0.27375284
-0.042440977 -0.03383724 0.27399155
-0.040458515 -0.033792697 0.27363086
-0.038988974 -0.034193542 0.27687666
-0.037306678 -0.034440164 0.27887362
-0.035734922 -0.034821909 0.28196475
-0.033900362 -0.03497741 0.28322387
-0.032029182 -0.035112206 0.28431538
-0.030176535 -0.035286646 0.28572789
-0.028291691 -0.035445664 0.2870155
-0.026533289 -0.035799749 0.28988263
-0.024756793 -0.036186397 0.29301348
-0.023053512 -0.036760096 0.29765892
-0.021087917 -0.036988433 0.29950783
-0.019259579 -0.037535008 0.30393365
-0.017470969 -0.038305335 0.31017122
-0.015803657 -0.039599691 0.32065207
-0.013827862 -0.040423699 0.32732433
-0.011629643 -0.040797036 0.33034736
-0.0092818504 -0.040701166 0.32957107
-0.0069437325 -0.040597938 0.3287352
-0.0046371473 -0.040668033 0.32930279
-0.0023251767 -0.040783849 0.33024058
0 -0.041178491 0.33343613
0.0023624951 -0.041438416 0.33554083
0.004758473 -0.041732065 0.33791861
0.0072060027 -0.042131353 0.3411518
0.0097452905 -0.04273336 0.34602645
0.012228975 -0.042899504 0.34737176
0.014808258 -0.04328974 0.35053164
0.017584648 -0.044062376 0.35678792
0.020423489 -0.044778772 0.36258882
0.023273641 -0.045358017 0.36727917
0.025548741 -0.044812769 0.36286411
0.027848929 -0.044406656 0.35957569
0.029802831 -0.04356207 0.3527368
0.033447862 -0.045129158 0.365426
0.034645032 -0.04340554 0.35146931
0.033218659 -0.038843922 0.31453237
0.038493969 -0.042199269 0.34170175
0.040187176 -0.04146396 0.33574766
0.043265052 -0.042159647 0.34138089
0.036854554 -0.034022782 0.27549395
0.037972808 -0.033302356 0.26966041
0.038513489 -0.032168128 0.2604762
0.038407207 -0.030621205 0.24795024
0.038465858 -0.029334577 0.23753196
0.039038029 -0.028530469 0.23102082
0.039458472 -0.027684232 0.22416858
0.040400278 -0.027254814 0.22069143
0.041258577 -0.026802957 0.21703258
0.042241968 -0.026461735 0.21426961
0.043065667 -0.026047464 0.2109151
0.043991629 -0.025720594 0.20826834
0.045458559 -0.025720902 0.20827083
0.04755434 -0.02606588 0.21106425
0.049966499 -0.026558114 0.21505
0.052511662 -0.027090004 0.21935691
0.054661714 -0.027393494 0.22181436
0.056907065 -0.027726555 0.22451128
0.058868933 -0.027907226 0.22597423
0.061631903 -0.028448163 0.23035438
0.11460627 -0.05154375 0.41736713
0.11540437 -0.050605129 0.40976682
0.15436028 -0.066036485 0.53471971
0.13766479 -0.057491794 0.46553046
0.16633232 -0.067848526 0.54939246
0.17435101 -0.069503076 0.56278986
0.21602041 -0.084200472 0.68179965
0.12923968 -0.049279951 0.39903641
0.10948698 -0.040859859 0.33085608
0.24170604 -0.088323951 0.71518886
0.34120926 -0.12213974 0.9890067
0.27665293 -0.097050436 0.78585017
0.295102 -0.10149256 0.82181954
0.14428502 -0.048668746 0.39408726
0.19171448 -0.063447028 0.51375198
0.15072604 -0.048958346 0.39643228
0.28219691 -0.089995705 0.72872561
0.1330694 -0.04167949 0.33749291
0.16282877 -0.050105862 0.40572408
0.25689736 -0.077689782 0.62908036
0.27693838 -0.082331002 0.66666186
1.7759346 -0.51916808 4.2038789
0.44246653 -0.12722804 1.0302083
1.8435494 -0.52154928 4.2231603
0.65658587 -0.18280296 1.4802173
0.33446515 -0.09166491 0.74224168
0.46816817 -0.12633415 1.0229703
0.036661036 -0.0097430078 0.078892425
2.0253189 -0.53021359 4.2933183
0.22464211 -0.057944801 0.46919861
1.7635978 -0.44831446 3.6301532
0.36478531 -0.09140534 0.7401399
0.29067239 -0.0718088 0.58146012
0.31485686 -0.076703094 0.62109083
0.2515164 -0.060433213 0.48934811
1.9585649 -0.46423566 3.7590725
1.4603359 -0.34152597 2.765451
0.16675971 -0.038486622 0.31163919
2.1946042 -0.49991682 4.0479951
0.72426033 -0.16286673 1.3187869
2.1761265 -0.48315808 3.9122944
0.55240303 -0.1211151 0.98070991
0.33044231 -0.071555473 0.57940882
0.95101625 -0.20342594 1.6472085
-0.14517337 -0.029278662 0.25144765
-0.12940125 -0.026419926 0.22689657
-0.12145819 -0.025108162 0.21563104
-0.12045395 -0.02521576 0.2165551
-0.11896852 -0.025224095 0.21662669
-0.11750787 -0.025237968 0.21674581
-0.11532634 -0.025095338 0.21552089
-0.11331552 -0.024986546 0.2145866
-0.11161328 -0.024943784 0.21421933
-0.10907022 -0.024709359 0.21220607
-0.10695428 -0.024566529 0.21097943
-0.10498294 -0.024453359 0.21000753
-0.10345905 -0.024442667 0.2099157
-0.10210408 -0.024472151 0.21016891
-0.1014411 -0.024670796 0.21187492
-0.10091449 -0.024909034 0.21392091
-0.1007868 -0.025254447 0.21688734
-0.10036326 -0.025535217 0.21929862
-0.09996222 -0.025830574 0.22183517
-0.09879268 -0.025933571 0.22271973
-0.097421803 -0.025986189 0.22317162
-0.095288552 -0.025833845 0.22186325
-0.093426816 -0.025751255 0.22115397
-0.09162388 -0.025682351 0.22056222
-0.09041442 -0.025780292 0.22140335
-0.08871907 -0.025740694 0.2210633
-0.087244935 -0.025765011 0.2212721
-0.0859624 -0.025847822 0.22198331
-0.085450962 -0.026169857 0.22474897
-0.084871635 -0.026482858 0.22743703
-0.084244519 -0.026792699 0.23009798
-0.083365254 -0.027032925 0.23216106
-0.08300972 -0.027455987 0.23579437
-0.082210302 -0.027746504 0.23828934
-0.080293402 -0.027664112 0.23758176
-0.077819236 -0.027382132 0.23516008
-0.075841151 -0.027266236 0.23416476
-0.074422769 -0.02735089 0.23489177
-0.073017597 -0.027444355 0.23569447
-0.071618073 -0.027544336 0.2365531
-0.070016421 -0.027569491 0.23676914
-0.069154188 -0.027894124 0.23955713
-0.068247005 -0.028216407 0.2423249
-0.067282982 -0.028531116 0.24502766
-0.065500885 -0.028506355 0.24481501
-0.063450456 -0.02836032 0.24356085
-0.061573423 -0.028285829 0.24292113
-0.060123809 -0.028409041 0.24397928
-0.059416059 -0.028900346 0.24819864
-0.05863449 -0.029384434 0.25235602
-0.057301883 -0.029614 0.25432757
-0.055663057 -0.029695012 0.2550233
-0.054078832 -0.029811522 0.25602388
-0.052433468 -0.029901208 0.25679412
-0.051168472 -0.030221954 0.25954872
-0.050141107 -0.030712012 0.26375738
-0.048970763 -0.031148825 0.26750877
-0.047557555 -0.031459924 0.27018052
-0.045964949 -0.031673327 0.27201322
-0.044087723 -0.031700637 0.27224779
-0.042369407 -0.031849883 0.27352953
-0.040462464 -0.0318648 0.27365762
-0.038779773 -0.03206664 0.27539101
-0.03711037 -0.032301284 0.27740619
-0.035525683 -0.032639842 0.28031376
-0.033799846 -0.032880917 0.28238413
-0.032012355 -0.033088401 0.28416601
-0.030313263 -0.03342101 0.28702247
-0.028596796 -0.033780608 0.29011074
-0.026811108 -0.034107473 0.29291788
-0.025025127 -0.034488413 0.29618943
-0.023292009 -0.035018086 0.3007383
-0.021389663 -0.035373833 0.30379349
-0.019538091 -0.035901926 0.30832881
-0.017760493 -0.036714967 0.31531128
-0.015906846 -0.037580639 0.32274571
-0.013857962 -0.038196735 0.32803681
-0.011566045 -0.03825542 0.32854083
-0.0092493529 -0.038241021 0.32841715
-0.0069377427 -0.038245033 0.3284516
-0.0046352306 -0.038328294 0.32916665
-0.0023161068 -0.038303345 0.3289524
0 -0.03848727 0.33053198
0.002327305 -0.038488541 0.33054286
0.00470564 -0.038910501 0.33416671
0.0071757161 -0.039556891 0.33971792
0.0097635165 -0.040366806 0.34667358
0.012389097 -0.04097772 0.35192016
0.015004951 -0.041358184 0.35518759
0.017713057 -0.041847896 0.3593933
0.020443315 -0.042260971 0.36294079
0.023124425 -0.042491939 0.3649244
0.025671048 -0.042454306 0.36460119
0.026713809 -0.040162548 0.34491938
0.038732916 -0.053379815 0.45843041
0.031096904 -0.039559603 0.33974123
0.035226699 -0.041612331 0.35737023
0.022344384 -0.024635153 0.21156879
0.028706109 -0.029671021 0.25481725
0.029910436 -0.02909725 0.24988967
0.031398192 -0.02884764 0.24774601
0.033370167 -0.02904577 0.24944757
0.03450568 -0.028532429 0.24503891
0.034867626 -0.02745878 0.23581834
0.03551989 -0.026700972 0.22931023
0.036135495 -0.025982704 0.22314169
0.037047032 -0.025528207 0.21923842
0.038064595 -0.025180211 0.21624981
0.039243806 -0.024961801 0.21437408
0.040406946 -0.024749726 0.21255276
0.041520931 -0.024523767 0.21061219
0.042701542 -0.024351388 0.20913178
0.044025414 -0.024269473 0.20842829
0.045678563 -0.024368504 0.20927879
0.047689199 -0.0246461 0.21166281
0.049843062 -0.024978645 0.21451873
0.051796529 -0.025194157 0.21636958
0.053694598 -0.025371183 0.21788988
0.05544671 -0.025471317 0.21874985
0.057344131 -0.02563099 0.22012113
0.047592849 -0.020712677 0.17788224
0.12102827 -0.051321615 0.44075444
0.11065515 -0.045749858 0.39290366
0.12585212 -0.050763883 0.43596455
0.17611328 -0.069345929 0.59554875
0.11972219 -0.046045195 0.39544007
0.072510496 -0.027253756 0.23405758
0.16659108 -0.061223388 0.5257917
0.084773019 -0.030477399 0.26174253
0.10009224 -0.035219297 0.30246633
0.2809031 -0.096781746 0.8311699
0.18998098 -0.064119801 0.55066633
0.19402452 -0.064174831 0.55113894
0.26519638 -0.085995466 0.73853642
0.28498793 -0.090636112 0.77839065
0.22322595 -0.069654144 0.59819573
0.15100986 -0.04624765 0.3971788
0.21021913 -0.063210271 0.54285526
0.20286903 -0.059910901 0.51451993
0.25638062 -0.074385531 0.63882935
0.15194836 -0.043325759 0.3720853
1.7579902 -0.49276808 4.2319345
1.5972005 -0.44023675 3.7807908
0.41800222 -0.11332531 0.97324741
0.022763191 -0.0060718297 0.052145395
1.8830214 -0.49430254 4.2451124
1.9995809 -0.51669842 4.4374499
0.40534422 -0.10313088 0.88569683
0.54313999 -0.13609621 1.1688057
0.21737577 -0.053655528 0.46079823
0.38224244 -0.09296257 0.79837048
2.1112454 -0.50602007 4.3457437
0.96918094 -0.22897337 1.9664428
0.10399322 -0.024222827 0.20802771
0.36590484 -0.084045373 0.72178876
2.1382413 -0.48440877 4.1601434
0.26843679 -0.059991322 0.51521063
2.0660801 -0.45557931 3.912554
2.1913867 -0.47685194 4.0952449
1.9292419 -0.41435644 3.5585284
2.0224485 -0.42880616 3.6826239
2.0494359 -0.42902774 3.6845267
0.038917821 -0.0080451965 0.069092833
1.9590353 -0.39997733 3.4350393
1.7403388 -0.35099271 3.0143552
-0.11510135 -0.021806825 0.19936138
-0.12382911 -0.02375 0.21712621
-0.12043496 -0.023387752 0.21381447
-0.11922982 -0.023446804 0.21435432
-0.11926423 -0.023754258 0.21716511
-0.11794483 -0.023796555 0.2175518
-0.11638301 -0.023790408 0.21749561
-0.11392408 -0.02359827 0.21573904
-0.11224362 -0.023564368 0.21542911
-0.11003118 -0.023416327 0.2140757
-0.1080083 -0.023305077 0.21305864
-0.10603084 -0.023200629 0.21210374
-0.10473143 -0.023243681 0.21249734
-0.10383508 -0.023378728 0.21373197
-0.10323583 -0.023585627 0.21562347
-0.10246167 -0.023758143 0.21720064
-0.10157347 -0.023909047 0.21858023
-0.10068522 -0.024064576 0.22000208
-0.10005938 -0.024288669 0.22205079
-0.099088803 -0.024434863 0.22338732
-0.0978484 -0.024518162 0.22414884
-0.095729314 -0.02438041 0.22288948
-0.09368822 -0.024258258 0.22177276
-0.091604449 -0.024120729 0.22051546
-0.090241611 -0.024171563 0.22098018
-0.088544361 -0.024133034 0.22062795
-0.087049305 -0.024149222 0.22077595
-0.085691109 -0.024204658 0.22128275
-0.085403256 -0.02457008 0.22462349
-0.085065812 -0.024934754 0.2279574
-0.084870718 -0.025355982 0.23180833
-0.084061354 -0.02560661 0.2340996
-0.083764188 -0.026026407 0.23793747
-0.082467362 -0.026146403 0.23903446
-0.080865763 -0.026172748 0.23927534
-0.077979639 -0.025775626 0.23564479
-0.075942397 -0.025647935 0.23447739
-0.074331395 -0.025661714 0.23460338
-0.073106527 -0.025812458 0.23598151
-0.071630694 -0.025879541 0.2365948
-0.070367269 -0.026028387 0.23795556
-0.069444612 -0.02631362 0.24056318
-0.068726599 -0.026692592 0.24402781
-0.06765417 -0.026949819 0.24637944
-0.065920629 -0.026950302 0.24638385
-0.063883021 -0.026823143 0.24522132
-0.061995331 -0.026753608 0.24458565
-0.060448967 -0.02683161 0.24529874
-0.059591841 -0.027229132 0.24893294
-0.058678623 -0.027624337 0.25254598
-0.057334054 -0.027834829 0.25447032
-0.055546943 -0.027837124 0.25449133
-0.053853422 -0.027888037 0.25495678
-0.052279592 -0.02800658 0.25604051
-0.051379297 -0.028507296 0.26061812
-0.050524384 -0.029071212 0.26577353
-0.049328092 -0.029474529 0.26946071
-0.047780871 -0.029692035 0.27144921
-0.046222012 -0.029920133 0.27353451
-0.04440989 -0.029996997 0.27423719
-0.042800315 -0.030223874 0.27631137
-0.040755194 -0.030150156 0.27563742
-0.038867727 -0.030191528 0.27601561
-0.037135422 -0.030364117 0.27759346
-0.03547949 -0.030621804 0.27994928
-0.033803545 -0.030891513 0.28241503
-0.032035451 -0.03110547 0.28437105
-0.030523106 -0.031612828 0.28900939
-0.028861972 -0.032027561 0.29280093
-0.027074128 -0.032354675 0.29579145
-0.025287295 -0.032737613 0.29929236
-0.023408519 -0.033060327 0.30224264
-0.021563089 -0.03349939 0.30625662
-0.019621519 -0.03387006 0.30964535
-0.017744238 -0.034458254 0.31502271
-0.015790077 -0.035043873 0.32037652
-0.013706835 -0.035490476 0.32445946
-0.011466359 -0.035627175 0.32570916
-0.0091788303 -0.035649482 0.3259131
-0.0069247684 -0.035859965 0.32783738
-0.0046425359 -0.036062114 0.32968542
-0.0023327051 -0.036239792 0.33130983
0 -0.036287326 0.33174437
0.0023351114 -0.036277179 0.3316516
0.0047043515 -0.036542282 0.33407521
0.0071966038 -0.03726767 0.34070683
0.0098517779 -0.038263131 0.3498075
0.012539722 -0.038962226 0.35619873
0.015087667 -0.039065801 0.35714561
0.017548494 -0.038946439 0.35605437
0.019956665 -0.038754653 0.35430107
0.027247105 -0.047033112 0.42998403
0.02261675 -0.035136305 0.32122156
0.017719295 -0.025025319 0.22878535
0.022842685 -0.029572753 0.27035871
0.022892818 -0.027357839 0.25010961
0.023423774 -0.025992898 0.23763111
0.024240723 -0.025106153 0.22952436
0.025698183 -0.02495217 0.22811662
0.027420998 -0.025058797 0.22909142
0.029121792 -0.025134571 0.22978415
0.030282896 -0.024761086 0.22636968
0.031200541 -0.024235839 0.22156779
0.032175194 -0.023802785 0.21760875
0.03305934 -0.023345189 0.21342534
0.034358665 -0.023207821 0.2121695
0.035776049 -0.023158319 0.21171695
0.037214227 -0.023125701 0.21141873
0.038630906 -0.023082744 0.21102603
0.039864689 -0.022937734 0.20970032
0.04102347 -0.022761468 0.20808886
0.042422872 -0.02272626 0.20776699
0.044087738 -0.022830868 0.20872335
0.045971107 -0.023038233 0.21061909
0.047998477 -0.023302546 0.21303549
0.04999027 -0.023534093 0.21515232
0.051494066 -0.023529038 0.21510611
0.053014267 -0.023531554 0.21512912
0.054420892 -0.023484919 0.21470277
0.056517258 -0.023730412 0.21694711
0.079639927 -0.032559153 0.29766083
0.04697625 -0.018712837 0.17107566
0.085656233 -0.033267859 0.30413994
0.044018809 -0.016679397 0.15248562
0.12223326 -0.045213278 0.4133468
0.19045493 -0.068809696 0.62906897
0.18412888 -0.065012239 0.59435201
0.19977662 -0.06896966 0.63053131
0.15569846 -0.052583855 0.48072976
0.18956761 -0.062660255 0.57284981
0.19662055 -0.063637562 0.58178455
0.25057703 -0.079445824 0.72630608
0.26404485 -0.082041495 0.75003606
0.24187234 -0.073678695 0.67358202
0.16274369 -0.048621316 0.44450364
0.21179987 -0.062083434 0.56757641
0.18670367 -0.053713687 0.49105889
0.14522532 -0.04102093 0.37501973
0.20110206 -0.055789743 0.5100385
0.29111597 -0.079344541 0.72538012
0.1958285 -0.052453417 0.47953728
0.3645452 -0.095989838 0.877554
0.23905145 -0.061896488 0.5658673
0.44828889 -0.11417054 1.0437647
1.3592737 -0.34059724 3.1137927
1.4346113 -0.35376886 3.2342098
0.65926301 -0.16003118 1.46303
1.455935 -0.3479802 3.181289
0.8436209 -0.19857715 1.8154233
1.4976612 -0.34726793 3.1747775
0.95529789 -0.21825077 1.9952824
0.64491296 -0.14520377 1.3274754
1.7980672 -0.39905596 3.6482315
0.91115773 -0.19937061 1.8226769
1.760945 -0.37996113 3.4736638
0.064261802 -0.013675899 0.12502719
2.0865164 -0.43804222 4.0046496
0.52063435 -0.10784436 0.98592991
0.34719151 -0.070971079 0.64882863
0.11775958 -0.023759177 0.21721008
0.65009516 -0.12948164 1.1837413
1.9538735 -0.3842335 3.5127223
2.2606707 -0.43900874 4.0134859
1.8826302 -0.36108202 3.3010681
1.3955636 -0.26440012 2.4171872
-0.11191305 -0.019834856 0.19383907
-0.13340518 -0.023935905 0.23391721
-0.12056727 -0.0219029 0.21404934
-0.11918428 -0.021925729 0.21427245
-0.1192975 -0.022227926 0.21722572
-0.1180044 -0.022272537 0.21766169
-0.11614395 -0.022209827 0.21704884
-0.11423405 -0.022135863 0.21632601
-0.11335052 -0.02226148 0.21755362
-0.1116172 -0.022221351 0.21716146
-0.10981994 -0.022167204 0.21663229
-0.10773624 -0.022052899 0.21551524
-0.10610361 -0.022028977 0.21528146
-0.1049212 -0.022099188 0.21596761
-0.10401631 -0.02223078 0.21725361
-0.10322987 -0.022391994 0.2188291
-0.10246162 -0.0225621 0.22049147
-0.10171352 -0.022741942 0.222249
-0.10056548 -0.022836585 0.22317392
-0.098916933 -0.022818774 0.22299984
-0.096958406 -0.022727724 0.22211008
-0.094772384 -0.022579491 0.22066145
-0.092878729 -0.022497136 0.21985662
-0.091329418 -0.022496806 0.21985339
-0.090389155 -0.022649078 0.22134148
-0.089041218 -0.022702748 0.22186598
-0.087645225 -0.022745861 0.22228731
-0.086186662 -0.022774015 0.22256243
-0.085859105 -0.023107596 0.22582243
-0.085660145 -0.023489032 0.22955006
-0.085745074 -0.023964481 0.23419645
-0.084884882 -0.024189249 0.23639302
