# .PCD v0.7 - Point Cloud Data file format
VERSION 0.7
FIELDS x y z
SIZE 4 4 4
TYPE F F F
COUNT 1 1 1
WIDTH 1343
HEIGHT 1
VIEWPOINT 0 0 0 1 0 0 0
POINTS 1343
DATA ascii
0.17305675 -0.063426979 0.36684975
0.29462945 -0.10639655 0.61537766
0.50542212 -0.17987277 1.0403504
0.44284555 -0.15535118 0.89852202
0.68382168 -0.23650742 1.3679146
0.068285212 -0.023289194 0.13470033
2.2470889 -0.75588834 4.3719168
0.48119545 -0.15967983 0.92355824
0.83818424 -0.27443436 1.5872768
0.47280559 -0.15276691 0.88357514
0.63006383 -0.20093431 1.1621664
0.87697691 -0.27609199 1.5968643
0.62821734 -0.19527341 1.1294247
0.54170614 -0.16627771 0.9617191
1.3755 -0.41699982 2.4118485
0.27358559 -0.081929378 0.47386414
-0.11515011 -0.033075966 0.19944583
-0.13368921 -0.038875267 0.23441525
-0.11587129 -0.034115199 0.20571233
-0.11385477 -0.033945814 0.20469095
-0.11287285 -0.034084503 0.20552723
-0.11086927 -0.033914272 0.20450076
-0.11031916 -0.034190025 0.20616354
-0.10826572 -0.034001008 0.20502375
-0.10775077 -0.034296572 0.206806
-0.10611774 -0.034239478 0.20646174
-0.10699644 -0.035002485 0.21106261
-0.10580879 -0.035101481 0.21165955
-0.104329 -0.035105009 0.21168081
-0.10228686 -0.034916673 0.21054515
-0.10112147 -0.03502648 0.21120732
-0.099676408 -0.035041258 0.21129639
-0.098588839 -0.035184056 0.21215747
-0.097253487 -0.035241459 0.2125036
-0.096889168 -0.035658028 0.21501549
-0.096053772 -0.035911694 0.21654508
-0.094366811 -0.035850041 0.21617331
-0.092490196 -0.035713129 0.21534774
-0.09128461 -0.03583508 0.21608311
-0.091347508 -0.036467567 0.21989694
-0.09122847 -0.037047971 0.22339675
-0.090823092 -0.037530422 0.22630593
-0.089352891 -0.037582234 0.22661833
-0.087918036 -0.037651069 0.22703341
-0.085761234 -0.037407551 0.22556502
-0.084305316 -0.037466332 0.22591944
-0.08351773 -0.037830092 0.22811289
-0.083021492 -0.038342673 0.23120372
-0.082064621 -0.038658772 0.23310976
-0.079787463 -0.038353115 0.23126668
-0.077560686 -0.038059447 0.22949587
-0.075515918 -0.03784449 0.22819971
-0.074080504 -0.037932206 0.22872865
-0.072840907 -0.03812632 0.22989911
-0.071969286 -0.038526237 0.23231059
-0.070953377 -0.038865715 0.23435761
-0.069758147 -0.039120793 0.23589575
-0.068394646 -0.039291654 0.236926
-0.066634618 -0.039237559 0.2365998
-0.064731106 -0.039094035 0.23573439
-0.063054852 -0.039083816 0.23567276
-0.061871961 -0.039387118 0.23750165
-0.060874347 -0.039828494 0.2401631
-0.059920132 -0.040324293 0.24315277
-0.058675375 -0.040647984 0.24510457
-0.057427667 -0.040989183 0.24716201
-0.056486428 -0.041577291 0.25070825
-0.05545133 -0.042132024 0.25405324
-0.053920042 -0.042334169 0.25527218
-0.052010395 -0.042242948 0.25472209
-0.050119974 -0.042161379 0.25423029
-0.048909962 -0.042667344 0.25728118
-0.048091225 -0.043566689 0.26270416
-0.047530849 -0.044781394 0.27002877
-0.046341661 -0.045480207 0.27424258
-0.044722021 -0.045798965 0.27616465
-0.042740997 -0.04575979 0.27592844
-0.04089462 -0.045867905 0.27658036
-0.039142456 -0.046097793 0.27796656
-0.037378624 -0.046337411 0.27941144
-0.035603233 -0.046588521 0.28092566
-0.03402954 -0.047148645 0.28430313
-0.032532614 -0.047891781 0.28878421
-0.030780509 -0.048333317 0.29144663
-0.028804298 -0.048460882 0.29221585
-0.02668152 -0.048342519 0.29150212
-0.0246791 -0.048440669 0.29209396
-0.022704078 -0.048615325 0.29314712
-0.020727972 -0.048822369 0.2943956
-0.018753553 -0.049079835 0.29594809
-0.016840748 -0.049583077 0.29898259
-0.015049247 -0.050638258 0.30534527
-0.013133502 -0.05155744 0.31088784
-0.011089811 -0.052241568 0.31501311
-0.008900621 -0.05241099 0.3160347
-0.0066827196 -0.052467939 0.31637815
-0.0044690752 -0.052631978 0.31736726
-0.002274757 -0.053579304 0.32307956
0 -0.054433074 0.32822776
0.0023407447 -0.05513357 0.33245167
0.0047009056 -0.055362228 0.33383048
0.0070461272 -0.055321157 0.33358285
0.010571516 -0.062249999 0.37536326
0.012823651 -0.060409293 0.36426392
0.0085138101 -0.03342218 0.20153348
0.010676266 -0.035923891 0.21661863
0.011898642 -0.035032369 0.21124279
0.013035956 -0.034116339 0.20571922
0.014170949 -0.033378053 0.20126739
0.015467327 -0.033119567 0.19970874
0.016817879 -0.033010494 0.19905104
0.018122829 -0.03283558 0.19799632
0.019345183 -0.032546692 0.19625436
0.020829879 -0.032708265 0.19722863
0.022677785 -0.033384334 0.20130527
0.024940489 -0.034555573 0.20836776
0.027071157 -0.035423897 0.21360371
0.029051038 -0.036013898 0.21716136
0.030513853 -0.03593595 0.21669134
0.031754628 -0.035616379 0.21476436
0.032812949 -0.035130523 0.21183468
0.034103092 -0.034924321 0.2105913
0.035772566 -0.035107583 0.21169634
0.037685011 -0.035505094 0.21409331
0.039380033 -0.035675064 0.2151182
0.040982485 -0.035751689 0.21558027
0.04263071 -0.035861343 0.21624148
0.044511247 -0.036152124 0.21799485
0.046302509 -0.036353424 0.21920869
0.048008259 -0.036476769 0.21995243
0.049165275 -0.036188498 0.2182142
0.050310124 -0.035909012 0.21652892
0.051180113 -0.035455562 0.21379462
0.052344333 -0.035226028 0.21241057
0.053508669 -0.035009325 0.21110384
0.054911822 -0.034956358 0.21078448
0.05581519 -0.034596395 0.2086139
0.056587007 -0.034175444 0.20607564
0.057387181 -0.033792239 0.2037649
0.05833701 -0.033513702 0.20208535
0.059220981 -0.033211488 0.20026302
0.059563465 -0.032626729 0.19673696
0.059719812 -0.031968907 0.19277035
0.060338471 -0.031582307 0.19043915
0.061961424 -0.031726748 0.19131015
0.063393749 -0.031769518 0.19156803
0.064644061 -0.03172119 0.19127661
0.065955959 -0.031704437 0.19117559
0.067910053 -0.031990875 0.19290282
0.070554972 -0.032585133 0.19648615
0.072864324 -0.033004537 0.19901513
0.074285179 -0.033013258 0.1990677
0.075783134 -0.033055279 0.19932109
0.07759124 -0.033228599 0.20036621
0.079604015 -0.033481814 0.20189306
0.1386126 -0.057278268 0.34538409
0.24118139 -0.097944006 0.59059566
0.21490169 -0.085792609 0.51732361
1.7461685 -0.6854834 4.1334186
0.036199771 -0.013977775 0.084285036
0.046167821 -0.017539199 0.10576018
1.9937931 -0.74542093 4.4948378
1.8116134 -0.66672635 4.0203147
0.19855846 -0.071951047 0.43385988
1.4304481 -0.51049352 3.0782411
1.8003311 -0.63290662 3.8163841
1.2462808 -0.43168706 2.6030438
1.4708515 -0.50209028 3.0275702
2.054558 -0.69132531 4.1686444
0.78489566 -0.26038483 1.5701028
0.37994194 -0.12429304 0.74947858
0.78911406 -0.25461206 1.5352935
0.17213622 -0.054790158 0.33038095
1.6410037 -0.51535958 3.1075833
2.0499692 -0.63532478 3.8309655
1.1673149 -0.35707492 2.1531377
1.7539383 -0.52964121 3.1937006
0.28603178 -0.085280403 0.51423502
0.019721244 -0.0058063921 0.035012152
1.691419 -0.49184498 2.9657919
1.0464156 -0.30057466 1.8124448
-0.11481892 -0.031577397 0.19887221
-0.11616058 -0.03234078 0.20367993
-0.11491074 -0.032392718 0.20400703
-0.11487203 -0.032791696 0.20651978
-0.11380116 -0.03290249 0.20721757
-0.1115863 -0.032681115 0.20582333
-0.11047841 -0.032782383 0.20646112
-0.10728452 -0.032259118 0.20316565
-0.10606775 -0.032324243 0.20357579
-0.10502027 -0.032443445 0.20432651
-0.10611421 -0.03323669 0.20932232
-0.1053567 -0.033464205 0.2107552
-0.10394142 -0.03348631 0.21089442
-0.10175472 -0.033256933 0.20944981
-0.10118772 -0.033557966 0.2113457
-0.10024238 -0.033740636 0.21249615
-0.099690922 -0.034063432 0.21452907
-0.098020494 -0.034007933 0.21417955
-0.09713944 -0.03422885 0.21557088
-0.0956323 -0.034232669 0.21559492
-0.093766846 -0.034106281 0.21479893
-0.092345975 -0.034140106 0.21501195
-0.091422476 -0.034361999 0.21640944
-0.092679098 -0.035424728 0.22310242
-0.091995709 -0.035769783 0.22527556
-0.091363937 -0.036147363 0.22765356
-0.089878514 -0.036194663 0.22795144
-0.088149674 -0.036143877 0.22763157
-0.085684337 -0.03578363 0.22536276
-0.083926544 -0.035710849 0.22490442
-0.082975164 -0.035984997 0.22663099
-0.082586795 -0.036518853 0.22999315
-0.081940524 -0.036957741 0.23275724
-0.08030279 -0.03695824 0.23276037
-0.078235097 -0.036756746 0.2314914
-0.076470129 -0.036691938 0.23108324
-0.075180158 -0.036857184 0.23212393
-0.073952757 -0.037061121 0.23340832
-0.073006563 -0.037418459 0.23565881
-0.071949407 -0.037734229 0.2376475
-0.07050585 -0.037857555 0.2384242
-0.068797901 -0.037841473 0.23832291
-0.06671501 -0.037613202 0.23688528
-0.064503059 -0.037298594 0.2349039
-0.062543519 -0.037117217 0.23376161
-0.061191611 -0.037296399 0.23489006
-0.060144987 -0.03767677 0.23728563
-0.059269063 -0.038188864 0.24051075
-0.058075659 -0.0385205 0.24259938
-0.056879882 -0.038870618 0.24480441
-0.055973224 -0.039446373 0.24843046
-0.055262744 -0.040201981 0.25318924
-0.053928223 -0.040538859 0.25531089
-0.052208655 -0.040599547 0.25569308
-0.050315313 -0.040524613 0.25522113
-0.049139202 -0.041043181 0.25848708
-0.048518773 -0.042083628 0.26503971
-0.048204686 -0.043483648 0.27385694
-0.046972293 -0.044137452 0.27797452
-0.045279272 -0.044396456 0.27960575
-0.043213911 -0.044297338 0.27898148
-0.041448124 -0.044510484 0.28032386
-0.039680295 -0.044742644 0.28178599
-0.037817016 -0.044885941 0.28268847
-0.035834678 -0.044896003 0.28275186
-0.033920899 -0.044998202 0.28339547
-0.032274291 -0.04548974 0.28649116
-0.030576315 -0.045969583 0.2895132
-0.028811477 -0.046410281 0.29228866
-0.026892964 -0.04665219 0.29381219
-0.024927469 -0.046846125 0.29503357
-0.022807412 -0.046758443 0.29448137
-0.020712201 -0.046709258 0.2941716
-0.018707443 -0.046875793 0.2952204
-0.016882259 -0.047590178 0.29971954
-0.015080658 -0.04858464 0.30598262
-0.013160702 -0.049465738 0.31153172
-0.011154366 -0.050309684 0.31684685
-0.0089949016 -0.050712276 0.31938234
-0.0067653582 -0.050856475 0.32029048
-0.0045086727 -0.050838813 0.32017925
-0.0022767168 -0.05134353 0.32335788
0 -0.051711034 0.32567242
0.0023093063 -0.052078474 0.32798654
0.0045903772 -0.0517601 0.32598144
0.0078180712 -0.058769919 0.37012878
0.013352409 -0.07527943 0.47410455
0.010157833 -0.04581501 0.28853971
0.0091914162 -0.034546804 0.21757333
0.010418722 -0.033565503 0.21139316
0.011592695 -0.032679182 0.20581116
0.012736435 -0.031914063 0.20099249
0.013968876 -0.031502001 0.19839737
0.015389149 -0.031549945 0.19869934
0.01683479 -0.031637575 0.19925122
0.018198634 -0.031569824 0.19882452
0.019441301 -0.031316556 0.19722944
0.020958921 -0.031510431 0.19845048
0.022844924 -0.032199301 0.20278892
0.025039541 -0.033216521 0.2091953
0.027140452 -0.034003317 0.21415047
0.02899497 -0.034414839 0.21674222
0.030436357 -0.034319378 0.216141
0.031794667 -0.034143787 0.21503516
0.032988571 -0.033815637 0.21296848
0.034326468 -0.033657201 0.21197067
0.035855766 -0.03369182 0.21218869
0.037625734 -0.03394077 0.21375656
0.039279312 -0.03406962 0.21456803
0.040974095 -0.034223333 0.21553613
0.042663213 -0.034361515 0.21640636
0.044663362 -0.034732025 0.21873984
0.046587333 -0.035020575 0.22055712
0.048354421 -0.035176381 0.22153838
0.049198873 -0.034672238 0.21836331
0.05007882 -0.034222905 0.21553342
0.050894041 -0.033757064 0.21259962
0.052624341 -0.033907466 0.2135468
0.054185987 -0.033943858 0.21377602
0.055668134 -0.033929829 0.21368764
0.056389026 -0.03346476 0.21075869
0.056978013 -0.032947268 0.20749958
0.057744872 -0.032555934 0.20503497
0.058597889 -0.032231074 0.20298904
0.059395704 -0.03189205 0.20085387
0.059641961 -0.031279527 0.19699624
0.059714023 -0.03060556 0.19275166
0.060100872 -0.030119307 0.18968926
0.061512772 -0.030156726 0.18992493
0.063125446 -0.030288886 0.19075727
0.064881384 -0.030482849 0.19197883
0.066652596 -0.030675929 0.19319482
0.068727165 -0.030998103 0.19522385
0.071223311 -0.031494059 0.19834736
0.073271953 -0.031776872 0.2001285
0.074658029 -0.031767085 0.20006686
0.076105908 -0.031783469 0.20017003
0.077824324 -0.031910192 0.20096812
0.079993077 -0.032213733 0.20287982
0.11602332 -0.045903638 0.28909788
0.3458575 -0.13447635 0.84692252
0.13924937 -0.053225275 0.33520904
0.18516371 -0.069595523 0.4383077
0.18429129 -0.06813208 0.42909104
0.25665835 -0.093355604 0.58794695
0.067193329 -0.024052616 0.15148167
1.9933542 -0.70239466 4.4236321
0.19973381 -0.069297075 0.4364281
0.35774061 -0.12223653 0.76983696
0.42618987 -0.14345147 0.90344727
0.54315954 -0.18013379 1.13447
0.39398625 -0.12876822 0.81097317
0.98268378 -0.31658652 1.9938397
0.79792529 -0.25344315 1.5961672
0.2247491 -0.07039506 0.4433431
0.14534959 -0.044902209 0.2827909
0.56094456 -0.17094836 1.0766206
0.87473106 -0.26302072 1.6564859
0.81337994 -0.24135517 1.5200377
0.39732301 -0.11636697 0.73287088
0.93518782 -0.27038395 1.702859
0.70021319 -0.19988486 1.2588607
2.2153788 -0.62450331 3.9330773
1.0261115 -0.2856842 1.7992189
0.98300838 -0.27034608 1.7026205
-0.10727647 -0.028191829 0.18580829
-0.11664137 -0.031031322 0.20452297
-0.11619182 -0.031298116 0.20628139
-0.11593723 -0.03162485 0.20843485
-0.11588545 -0.032015994 0.2110128
-0.1141241 -0.031938847 0.21050437
-0.11180842 -0.031702507 0.20894665
-0.10863395 -0.031213103 0.20572108
-0.10716183 -0.031206211 0.20567566
-0.10628347 -0.031374406 0.2067842
-0.10682456 -0.03197211 0.21072356
-0.10597444 -0.032164399 0.21199094
-0.10452212 -0.032176796 0.21207264
-0.10270517 -0.032075677 0.21140617
-0.10204407 -0.032337878 0.2131343
-0.10119456 -0.032547306 0.21451461
-0.10062102 -0.032853186 0.21653061
-0.099138692 -0.032867182 0.21662287
-0.097313456 -0.03276616 0.21595706
-0.095198162 -0.032562722 0.21461621
-0.093109652 -0.032362025 0.21329345
-0.092190191 -0.032567732 0.21464923
-0.092363797 -0.033172879 0.21863769
-0.092903756 -0.033932347 0.22364321
-0.092421092 -0.034338061 0.2263172
-0.091792375 -0.034702789 0.2287211
-0.089850649 -0.034575291 0.22788078
-0.08775872 -0.034384303 0.22662199
-0.085157029 -0.033982817 0.22397587
-0.083407745 -0.033912763 0.22351415
-0.082628012 -0.034241803 0.2256828
-0.082144521 -0.034708921 0.22876148
-0.081523694 -0.03513553 0.23157321
-0.080118172 -0.035234462 0.23222525
-0.078596652 -0.035285432 0.23256122
-0.076862812 -0.035241231 0.2322699
-0.075603552 -0.035417426 0.23343116
-0.074456796 -0.035655335 0.23499918
-0.073656991 -0.036073972 0.23775835
-0.072745942 -0.036456332 0.24027844
-0.071371242 -0.036619011 0.24135064
-0.069590449 -0.036576185 0.24106838
-0.067530148 -0.036380641 0.23977958
-0.065242343 -0.036049362 0.23759617
-0.063088261 -0.035776477 0.23579763
-0.061231345 -0.035661917 0.23504259
-0.059845198 -0.035822798 0.23610289
-0.058857493 -0.036238182 0.23884062
-0.05782168 -0.03664751 0.24153845
-0.056710139 -0.037032191 0.24407384
-0.055743791 -0.037538696 0.24741216
-0.054836221 -0.038118735 0.2512351
-0.053620208 -0.038515884 0.25385264
-0.052159425 -0.038758542 0.25545198
-0.050512362 -0.03887517 0.25622067
-0.049311854 -0.039356843 0.25939527
-0.048572261 -0.040257577 0.26533189
-0.047968566 -0.041347511 0.27251551
-0.04686565 -0.04208003 0.27734342
-0.045120902 -0.042274896 0.27862778
-0.042888328 -0.042009652 0.27687958
-0.041287009 -0.042366903 0.27923417
-0.039527785 -0.042589758 0.28070295
-0.037744556 -0.042808831 0.28214684
-0.035639074 -0.042666454 0.28120846
-0.03348944 -0.042451363 0.27979085
-0.031690236 -0.042681348 0.28130662
-0.029990157 -0.043084409 0.28396314
-0.028517576 -0.043895222 0.28930709
-0.026863767 -0.044530362 0.29349321
-0.024898842 -0.044712666 0.29469475
-0.02270039 -0.044470631 0.29309952
-0.020516537 -0.044211652 0.29139262
-0.018588416 -0.044507429 0.29334208
-0.016814567 -0.045292716 0.29851776
-0.015026933 -0.046259925 0.30489254
-0.013086313 -0.047000092 0.30977082
-0.011114929 -0.047903724 0.31572658
-0.0090039512 -0.04850715 0.31970367
-0.0067968708 -0.048822545 0.32178238
-0.0045116036 -0.048610888 0.32038739
-0.0022505857 -0.048498493 0.31964657
0 -0.048104633 0.3170507
0.0022178895 -0.04779391 0.31500277
0.0042265081 -0.045539089 0.30014157
0.0093935924 -0.067475028 0.44471824
0.011400855 -0.061420038 0.40481064
0.0077624968 -0.03345523 0.22049862
0.0089417575 -0.032114729 0.21166356
0.010205399 -0.031416994 0.20706488
0.011376482 -0.03064437 0.20197262
0.012564678 -0.030084409 0.19828202
0.013854188 -0.029854771 0.19676849
0.015271921 -0.029918075 0.19718571
0.016723877 -0.030032283 0.19793846
0.018114388 -0.030027071 0.19790411
0.019398682 -0.029859111 0.1967971
0.020936329 -0.030077513 0.19823657
0.022723146 -0.030604204 0.20170791
0.024809347 -0.031448439 0.20727214
0.026778186 -0.032058362 0.21129204
0.028625095 -0.032465789 0.21397735
0.030106651 -0.032438822 0.21379961
0.031649217 -0.032477029 0.21405143
0.033060711 -0.032383375 0.21343417
0.034606308 -0.032423511 0.21369871
0.036115162 -0.032427311 0.21372375
0.037771899 -0.032558277 0.21458694
0.039367247 -0.03262829 0.21504837
0.04101757 -0.032736994 0.21576482
0.042574611 -0.032766141 0.21595693
0.044503454 -0.033069558 0.21795671
0.046495099 -0.033397853 0.22012044
0.048437133 -0.033670485 0.22191732
0.049458668 -0.0333062 0.21951638
0.050373167 -0.032894097 0.21680024
0.051458661 -0.032614615 0.21495822
0.053216122 -0.032764822 0.21594822
0.054665823 -0.032722466 0.21566907
0.055817809 -0.032509007 0.2142622
0.056484323 -0.032031476 0.21111487
0.05716753 -0.03158766 0.20818973
0.057969145 -0.031229824 0.20583129
0.058637585 -0.03081945 0.20312656
0.059269197 -0.030409718 0.20042609
0.059771024 -0.029954005 0.19742252
0.0601498 -0.029458739 0.19415832
0.060546953 -0.028994288 0.19109719
0.061656997 -0.02888399 0.19037023
0.063246042 -0.028998006 0.1911217
0.065210342 -0.02927574 0.19295219
0.067186423 -0.029547323 0.19474213
0.069118604 -0.029789114 0.19633576
0.071407974 -0.030172354 0.19886163
0.073452681 -0.030439463 0.20062213
0.075459495 -0.030681083 0.2022146
0.07717818 -0.030798774 0.20299029
0.079318777 -0.031077491 0.20482726
0.081295475 -0.031283189 0.206183
0.11647426 -0.04403396 0.29022151
0.194831 -0.072387353 0.47709462
0.28848121 -0.10536543 0.69444841
1.8281891 -0.6566025 4.3275728
1.8364625 -0.64876121 4.2758918
1.6719663 -0.58112359 3.830102
0.11174417 -0.038222313 0.25191778
1.4596035 -0.49145934 3.2391379
0.7996043 -0.26509064 1.7471743
2.0763049 -0.67792225 4.4680877
0.19016927 -0.061164327 0.40312529
0.93330991 -0.29576692 1.9493574
0.81762284 -0.25535041 1.6829778
0.55659139 -0.17134485 1.1293093
0.68702978 -0.20852104 1.3743322
0.65622169 -0.19640419 1.2944717
1.271946 -0.37547278 2.4746871
0.57505322 -0.16745916 1.1036993
0.38956013 -0.11192984 0.73771346
1.0946964 -0.3103936 2.0457594
1.6296079 -0.45606318 3.005847
0.21587677 -0.059640869 0.39308438
0.89754957 -0.24482964 1.613637
0.41425237 -0.11158547 0.73544383
0.14311306 -0.03807386 0.25093934
0.36123079 -0.094930008 0.62567002
-0.1170876 -0.029338984 0.20280166
-0.11980779 -0.030391214 0.21007507
-0.11910506 -0.030590622 0.21145342
-0.11910053 -0.030976662 0.21412188
-0.11880383 -0.031295646 0.2163268
-0.11765313 -0.031395022 0.21701373
-0.1154446 -0.031211032 0.2157419
-0.11258744 -0.03084443 0.21320783
-0.11024868 -0.030611863 0.21160027
-0.10869016 -0.030592531 0.21146663
-0.10767666 -0.030728202 0.21240443
-0.10598941 -0.030672712 0.21202087
-0.10453022 -0.030682577 0.21208906
-0.10323656 -0.030742025 0.21249998
-0.10274105 -0.031044392 0.21459004
-0.10165887 -0.031175869 0.21549886
-0.10085718 -0.03139865 0.21703881
-0.099057347 -0.031312764 0.21644512
-0.097053804 -0.031158796 0.21538083
-0.094614111 -0.030857688 0.2132995
-0.09289328 -0.030785104 0.21279778
-0.092652939 -0.031208826 0.21572667
-0.09357053 -0.032043204 0.2214942
-0.09384945 -0.03268344 0.22591974
-0.093060382 -0.032967415 0.22788268
-0.09157677 -0.033010986 0.22818388
-0.089242697 -0.032744076 0.22633888
-0.086693823 -0.032387208 0.22387208
-0.08408653 -0.031994898 0.22116029
-0.082776599 -0.032090742 0.2218228
-0.082217939 -0.032487128 0.22456276
-0.081490815 -0.032831185 0.22694102
-0.080641225 -0.033138677 0.22906652
-0.079085931 -0.033162799 0.22923325
-0.077951789 -0.033368211 0.23065312
-0.076719254 -0.033539344 0.23183605
-0.075572208 -0.033756107 0.23333439
-0.074393637 -0.033968106 0.23479982
-0.073775232 -0.034451332 0.23814003
-0.073060326 -0.034910914 0.24131683
-0.071773753 -0.035112713 0.24271175
-0.070262052 -0.035211541 0.2433949
-0.068468049 -0.035170294 0.24310981
-0.06635984 -0.034961395 0.2416658
-0.064199589 -0.034713361 0.23995131
-0.061843581 -0.034343217 0.23739272
-0.060169917 -0.034341954 0.23738399
-0.058947746 -0.034605667 0.23920688
-0.058084812 -0.035101987 0.24263762
-0.057024807 -0.035505686 0.24542813
-0.055957351 -0.035929833 0.24835999
-0.054863065 -0.036363561 0.25135809
-0.053644072 -0.036740795 0.25396565
-0.052258015 -0.037025671 0.2559348
-0.05074862 -0.037240393 0.25741905
-0.049420219 -0.037608758 0.2599653
-0.048297748 -0.038168196 0.26383233
-0.047264338 -0.03884558 0.26851469
-0.045815729 -0.039223954 0.27113014
-0.043947682 -0.039260533 0.27138299
-0.042109895 -0.039328698 0.27185416
-0.040280588 -0.039411642 0.27242753
-0.038804919 -0.039866202 0.27556959
-0.037183162 -0.040210623 0.27795035
-0.035130877 -0.04010186 0.27719855
-0.03285398 -0.03970883 0.27448177
-0.030884951 -0.039662033 0.2741583
-0.029222384 -0.040028788 0.27669346
-0.02816507 -0.041336231 0.28573096
-0.02661879 -0.042071987 0.29081675
-0.02469944 -0.042291582 0.29233471
-0.022510853 -0.042048186 0.29065228
-0.02043082 -0.041979171 0.2901752
-0.018663529 -0.042608798 0.29452741
-0.016783282 -0.043105725 0.29796234
-0.014911948 -0.04377079 0.30255952
-0.012942852 -0.044322755 0.30637491
-0.011011994 -0.045252655 0.3128027
-0.0089678224 -0.046065424 0.31842086
-0.0067816512 -0.046447486 0.32106182
-0.0044786823 -0.046011701 0.31804952
-0.0021874197 -0.044944871 0.3106752
0 -0.043445561 0.30031142
0.0020380188 -0.041875135 0.28945607
0.0064768377 -0.066539735 0.45994672
0.0053765043 -0.036823645 0.25453833
0.006436944 -0.033064943 0.22855684
0.0075842394 -0.031166648 0.21543512
0.0087818736 -0.030073499 0.20787889
0.010015819 -0.029399266 0.20321836
0.011210595 -0.028792989 0.19902754
0.012437053 -0.028393766 0.19626796
0.013717463 -0.028185248 0.19482662
0.01507486 -0.028158443 0.19464134
0.016480703 -0.028219061 0.19506036
0.017914377 -0.028314339 0.19571894
0.019311674 -0.028342616 0.1959144
0.020908469 -0.028640399 0.19797279
0.022640893 -0.029075125 0.20097777
0.024603028 -0.029736351 0.20554842
0.02650764 -0.030258445 0.2091573
0.028296119 -0.030599993 0.2115182
0.029770544 -0.030584741 0.2114128
0.031416874 -0.03073914 0.21248005
0.033077996 -0.030893318 0.21354577
0.03491259 -0.03118906 0.21559004
0.036545739 -0.031287692 0.21627185
0.038152866 -0.03135705 0.21675126
0.039625045 -0.031314429 0.21645662
0.041140214 -0.031307679 0.21640997
0.042503085 -0.031189648 0.21559411
0.044242341 -0.031346437 0.21667787
0.046152689 -0.031609949 0.21849939
0.048141833 -0.031908691 0.22056441
0.049540661 -0.031809721 0.2198803
0.050822549 -0.031643938 0.21873434
0.052179065 -0.03153301 0.21796755
0.053718548 -0.03153583 0.21798706
0.054758146 -0.031253185 0.21603331
0.05551837 -0.030830676 0.21311277
0.056262121 -0.030421494 0.21028437
0.057203144 -0.030137228 0.20831941
0.058152538 -0.029871481 0.20648247
0.058802467 -0.029468618 0.20369773
0.059384901 -0.029051915 0.20081733
0.06013814 -0.028736217 0.1986351
0.060685985 -0.028338954 0.19588909
0.061184041 -0.027936611 0.19310795
0.061978742 -0.027684264 0.19136363
0.06330204 -0.02767374 0.19129089
0.065349616 -0.027973695 0.19336429
0.067335531 -0.028235549 0.19517432
0.068986163 -0.02834915 0.19595957
0.071168013 -0.028672313 0.1981934
0.073876694 -0.029191216 0.20178023
0.076452374 -0.029638974 0.20487529
0.078810044 -0.029987194 0.20728232
0.080890574 -0.030219223 0.20888618
0.082599446 -0.030306594 0.20949014
0.10226928 -0.036865354 0.25482666
0.24616781 -0.087206997 0.60280627
0.3036392 -0.10574354 0.7309376
0.20119032 -0.068897575 0.4762449
0.65085691 -0.21923189 1.5154099
1.9473624 -0.6453616 4.4609728
0.11838795 -0.038611349 0.26689562
0.56471026 -0.18129832 1.2531993
0.0088671679 -0.0028029776 0.019375192
1.0341896 -0.32196176 2.2255158
0.45200655 -0.13861749 0.95817411
0.70497936 -0.21301764 1.4724548
0.59880525 -0.17831364 1.2325683
0.69974607 -0.20539527 1.4197663
0.55888361 -0.16173764 1.1179891
1.9556077 -0.55808109 3.8576579
0.79882485 -0.22484165 1.5541867
1.152164 -0.31991208 2.2113481
0.50659662 -0.13878709 0.95934641
0.78872329 -0.21323532 1.4739594
0.31060478 -0.082883 0.57291722
1.8824239 -0.49587348 3.4276567
1.1464618 -0.29818141 2.0611377
1.101813 -0.28298664 1.9561058
1.0001004 -0.25369191 1.7536101
1.0296609 -0.25800517 1.783425
-0.11019911 -0.026265943 0.19087046
-0.11365166 -0.027423289 0.19928068
-0.12106431 -0.029577056 0.21493177
-0.1205788 -0.029831331 0.21677956
-0.11969312 -0.02999186 0.21794608
-0.11911799 -0.03023538 0.2197157
-0.11756139 -0.030232906 0.21969773
-0.11527894 -0.030041218 0.21830475
-0.11290324 -0.029819712 0.21669511
-0.11054905 -0.029597905 0.21508327
-0.10891377 -0.029565083 0.21484476
-0.10732736 -0.029544791 0.21469732
-0.1055033 -0.029457564 0.21406344
-0.10409012 -0.02948419 0.21425694
-0.10291221 -0.029579226 0.21494755
-0.10105653 -0.029479383 0.214222
-0.099743202 -0.029537121 0.21464157
-0.098020107 -0.029473426 0.2141787
-0.096401177 -0.02943955 0.21393254
-0.094578952 -0.029341528 0.21322024
-0.093651667 -0.029522466 0.21453509
-0.093580738 -0.029983712 0.21788689
-0.093807854 -0.030557426 0.22205597
-0.093913376 -0.031110305 0.22607365
-0.092465714 -0.031158859 0.22642648
-0.090733267 -0.031111469 0.22608212
-0.088402346 -0.030853506 0.22420755
-0.085754491 -0.030473545 0.22144641
-0.0836289 -0.030268537 0.21995665
-0.082344793 -0.030366104 0.22066566
-0.08214245 -0.030874016 0.22435658
-0.080912612 -0.03100808 0.22533078
-0.079895943 -0.03123083 0.2269495
-0.078388512 -0.03126692 0.22721176
-0.077808127 -0.031681996 0.23022804
-0.0764881 -0.031807154 0.23113753
-0.07552433 -0.032089125 0.23318659
-0.074368 -0.032299992 0.2347189
-0.073867559 -0.032811787 0.23843807
-0.073342063 -0.033335999 0.24224742
-0.072299145 -0.033644389 0.24448843
-0.070900902 -0.033798441 0.24560791
-0.069311902 -0.033866994 0.24610607
-0.06720607 -0.033680048 0.24474755
-0.065125719 -0.033496372 0.24341281
-0.063098416 -0.033330783 0.24220951
-0.061531186 -0.033405777 0.24275449
-0.060147505 -0.033587553 0.24407543
-0.05905059 -0.033944868 0.24667197
-0.05745868 -0.034030668 0.24729548
-0.056282736 -0.034375899 0.2498042
-0.054907136 -0.034617517 0.25156
-0.05369046 -0.034978777 0.25418523
-0.05229684 -0.035245705 0.25612497
-0.050776754 -0.035443429 0.25756177
-0.049260605 -0.035658639 0.25912568
-0.047871962 -0.03598626 0.26150644
-0.046557151 -0.036397804 0.26449707
-0.045051426 -0.036688171 0.26660714
-0.043251764 -0.036754016 0.26708561
-0.041210055 -0.036610812 0.26604494
-0.039526898 -0.036787666 0.26733014
-0.038258318 -0.037387349 0.27168795
-0.036726516 -0.037779391 0.27453685
-0.034881063 -0.037874419 0.27522743
-0.032792699 -0.037701357 0.2739698
-0.030572675 -0.037345842 0.2713863
-0.029171767 -0.038010214 0.27621418
-0.027760506 -0.038755037 0.2816267
-0.026248427 -0.039462879 0.28677046
-0.024262123 -0.039516307 0.28715873
-0.022137383 -0.039333485 0.2858302
-0.020330826 -0.039735969 0.28875497
-0.018615443 -0.0404259 0.29376858
-0.016804773 -0.041055515 0.2983439
-0.01479758 -0.041316301 0.30023903
-0.012802595 -0.04170379 0.30305484
-0.010873848 -0.042505197 0.30887851
-0.0088721793 -0.043350998 0.31502482
-0.0066595152 -0.043386053 0.31527957
-0.0042932597 -0.041955218 0.3048819
-0.0023497047 -0.045924254 0.33372429
0 -0.025736613 0.18702388
0.0017266909 -0.03374764 0.24523875
0.0033788062 -0.033018861 0.23994282
0.0048108469 -0.031342171 0.22775859
0.0061492831 -0.030046459 0.21834287
0.0073830457 -0.028859867 0.20972008
0.0085745361 -0.027931107 0.20297094
0.0098004304 -0.027363766 0.19884816
0.011042933 -0.026978839 0.19605094
0.012299149 -0.026709231 0.19409175
0.013526104 -0.026436351 0.19210877
0.014818668 -0.026329663 0.19133349
0.016213603 -0.02640749 0.19189903
0.017780462 -0.026731819 0.19425587
0.019365735 -0.027035519 0.19646284
0.021074019 -0.027459014 0.19954029
0.022762867 -0.027805824 0.20206051
0.024583658 -0.028263528 0.20538658
0.026356516 -0.028618332 0.20796488
0.028136844 -0.02894347 0.2103276
0.029657805 -0.02898263 0.21061218
0.031401783 -0.029225625 0.212378
0.033194322 -0.029489672 0.21429676
0.035158154 -0.029876316 0.21710643
0.036915656 -0.030062711 0.21846095
0.038541354 -0.030131154 0.2189583
0.039933573 -0.030018823 0.21814202
0.041353229 -0.029934665 0.21753047
0.04259719 -0.029733889 0.21607146
0.044092357 -0.029716257 0.21594332
0.045795102 -0.029835034 0.21680647
0.047664534 -0.030051244 0.21837763
0.049311534 -0.030118085 0.21886334
0.050945677 -0.030173255 0.21926428
0.052370049 -0.0301046 0.21876536
0.053580489 -0.029920401 0.21742681
0.054212861 -0.0294326 0.21388204
0.054804273 -0.028949531 0.21037164
0.055794045 -0.028696774 0.2085349
0.057029303 -0.028580002 0.20768635
0.058103271 -0.028390262 0.20630753
0.058732163 -0.027997607 0.20345418
0.059301641 -0.027596004 0.20053579
0.060293026 -0.027404848 0.19914669
0.061130203 -0.027153885 0.19732298
0.061959166 -0.026910504 0.19555436
0.062589534 -0.026593329 0.19324951
0.063797683 -0.026529916 0.19278869
0.065447196 -0.026648859 0.19365303
0.067119963 -0.026772222 0.19454949
0.068344042 -0.026715262 0.19413558
0.070469365 -0.02700592 0.19624774
0.073391862 -0.027585024 0.20045599
0.076811828 -0.028325725 0.20583855
0.079872705 -0.028909024 0.21007729
0.082081616 -0.02916836 0.21196185
0.084162265 -0.029373666 0.21345378
0.092015862 -0.031551257 0.22927797
0.24052219 -0.081050545 0.58898145
0.4665612 -0.15455584 1.1231328
0.84407032 -0.27495158 1.9980295
1.9041994 -0.61011451 4.4336057
0.37201351 -0.11727239 0.85219991
0.32801822 -0.10176214 0.73948932
1.8033756 -0.55072528 4.0020332
0.66599244 -0.20025562 1.4552258
0.41243777 -0.12213589 0.88754213
1.1636111 -0.33943909 2.46665
0.74384564 -0.21379754 1.5536329
0.68229431 -0.19326422 1.4044204
1.0223687 -0.28545544 2.0743594
1.0304983 -0.28367284 2.0614054
0.72959107 -0.19805044 1.4392011
0.79944474 -0.21403973 1.5553927
0.28138438 -0.074318513 0.54006088
0.63826549 -0.16632937 1.2086891
0.47478577 -0.12209923 0.8872757
0.83364284 -0.21160118 1.5376722
0.96450508 -0.24167889 1.7562422
0.80547458 -0.19927533 1.4481022
0.49395561 -0.12067762 0.87694514
0.45347208 -0.10941941 0.79513341
1.3696023 -0.32644457 2.3722208
-0.13581203 -0.03071074 0.23523335
-0.13788196 -0.031563733 0.24176694
-0.1218849 -0.02825048 0.21638863
-0.12113059 -0.028431036 0.2177716
-0.11999553 -0.028525706 0.21849675
-0.11947589 -0.028771035 0.22037587
-0.11820278 -0.028838987 0.22089636
-0.1157993 -0.02862929 0.21929017
-0.11309228 -0.028337866 0.21705796
-0.11064187 -0.028103638 0.21526386
-0.10941267 -0.028177409 0.2158289
-0.1075395 -0.028085077 0.21512167
-0.10607954 -0.028099559 0.2152326
-0.10438838 -0.028052332 0.21487089
-0.102978 -0.028080281 0.21508494
-0.10043731 -0.027796248 0.21290936
-0.09849146 -0.027670726 0.21194789
-0.096788235 -0.027610555 0.21148701
-0.095976144 -0.027806688 0.21298932
-0.095218204 -0.028024983 0.21466139
-0.094717182 -0.02832716 0.21697594
-0.094162963 -0.028623071 0.2192425
-0.093888745 -0.029015377 0.22224744
-0.09327469 -0.029314179 0.22453615
-0.09183114 -0.029358098 0.22487257
-0.089886717 -0.029240621 0.22397274
-0.0879879 -0.029134048 0.22315642
-0.085796811 -0.028925067 0.22155569
-0.084390596 -0.028977854 0.22196004
-0.082899354 -0.029002886 0.22215177
-0.082261413 -0.02933315 0.22468148
-0.080664374 -0.029327665 0.22463946
-0.079532966 -0.029494641 0.22591843
-0.078316055 -0.029636074 0.22700176
-0.07773494 -0.030029006 0.23001148
-0.07652545 -0.030190755 0.23125042
-0.075415164 -0.030399524 0.23284951
-0.074251488 -0.030595571 0.23435116
-0.073797449 -0.031099588 0.23821177
-0.073230758 -0.031578466 0.24187979
-0.072153196 -0.031854603 0.24399491
-0.070717357 -0.03198218 0.24497211
-0.069021732 -0.03199571 0.24507575
-0.067120127 -0.031912003 0.24443457
-0.065337069 -0.031881738 0.24420276
-0.063656203 -0.03190105 0.24435066
-0.062453289 -0.032167606 0.24639237
-0.061169744 -0.032406677 0.2482236
-0.059723686 -0.032571193 0.2494837
-0.057736952 -0.032441866 0.24849315
-0.056284942 -0.032614306 0.24981397
-0.054936253 -0.032859672 0.25169337
-0.053837929 -0.033276148 0.25488341
-0.052596379 -0.03362976 0.25759196
-0.051116083 -0.033850528 0.25928298
-0.049511306 -0.034002163 0.26044446
-0.048017643 -0.034244705 0.26230222
-0.046457134 -0.034457065 0.26392883
-0.0446277 -0.034479361 0.2640996
-0.042954434 -0.03462949 0.26524955
-0.041156549 -0.034688234 0.26569951
-0.039721455 -0.035072908 0.26864597
-0.038345244 -0.035550635 0.27230522
-0.036801126 -0.035914794 0.27509454
-0.034964945 -0.03601855 0.27588928
-0.032891732 -0.035875976 0.27479717
-0.031069072 -0.036005944 0.27579272
-0.029191228 -0.036085024 0.27639842
-0.027673973 -0.03665299 0.28074884
-0.025955113 -0.037020773 0.28356591
-0.024035998 -0.037140422 0.28448239
-0.022110978 -0.037271868 0.28548923
-0.020359145 -0.03775074 0.28915721
-0.018705053 -0.038537391 0.2951827
-0.016828405 -0.039004873 0.29876342
-0.014701301 -0.038942486 0.29828557
-0.012619257 -0.038998552 0.298715
-0.010665578 -0.039553076 0.30296248
-0.0085310638 -0.039546598 0.30291283
-0.0065321648 -0.040374 0.30925044
-0.0032317813 -0.029962489 0.22950198
-0.0017555966 -0.032552972 0.24934417
0 -0.030153306 0.23096357
0.0015415393 -0.028583838 0.21894202
0.0030275751 -0.028069252 0.21500045
0.0044472534 -0.02748758 0.21054506
0.0058530988 -0.027132623 0.20782624
0.0071220282 -0.026411895 0.2023057
0.0083650108 -0.025851231 0.1980112
0.0096211424 -0.025485581 0.19521046
0.010903743 -0.025272695 0.19357982
0.012163265 -0.025059566 0.19194736
0.013358918 -0.02477064 0.18973427
0.014650304 -0.024695614 0.1891596
0.016118085 -0.024905661 0.1907685
0.017824054 -0.02542313 0.19473211
0.01953442 -0.025872502 0.19817413
0.021319605 -0.026354441 0.20186563
0.023014905 -0.02667197 0.2042978
0.024762863 -0.027009582 0.20688377
0.026463812 -0.027261253 0.20881149
0.028199382 -0.027520217 0.21079506
0.029749868 -0.027581694 0.21126595
0.031509202 -0.027821725 0.21310449
0.033312406 -0.028076908 0.2150591
0.035245113 -0.028414302 0.21764344
0.037022237 -0.028603379 0.21909167
0.038641237 -0.028660046 0.21952575
0.039977804 -0.028510939 0.21838363
0.041303374 -0.02836532 0.21726824
0.042492107 -0.028139485 0.21553843
0.04390781 -0.028074348 0.21503949
0.045524549 -0.028137814 0.21552561
0.047308296 -0.02829707 0.21674548
0.048923843 -0.028348919 0.21714261
0.050547201 -0.02840201 0.21754928
0.051821221 -0.028261464 0.21647273
0.052914534 -0.028033208 0.21472439
0.053688116 -0.027652957 0.21181178
0.054570179 -0.027347622 0.20947304
0.055789314 -0.027222835 0.20851722
0.057275727 -0.02723152 0.20858374
0.058370676 -0.027058307 0.20725699
0.059012879 -0.02668879 0.20442662
0.059519734 -0.02627711 0.20127331
0.060330983 -0.02601584 0.19927207
0.061228473 -0.025802791 0.19764018
0.062031053 -0.025560101 0.19578126
0.06292554 -0.02536501 0.19428694
0.064153776 -0.025309891 0.19386475
0.06548696 -0.02529761 0.19377068
0.066743016 -0.025256647 0.1934569
0.067522347 -0.025040526 0.19180149
0.069270641 -0.025185172 0.19290943
0.071962848 -0.025660843 0.1965529
0.075088322 -0.026270144 0.20121995
0.078174323 -0.026843324 0.20561031
0.080443397 -0.027120247 0.20773141
0.082258597 -0.027236996 0.20862567
0.083237134 -0.027077476 0.20740382
0.16314478 -0.052156825 0.39950269
0.2700223 -0.084862053 0.65001309
0.64124751 -0.19817112 1.51792
0.39719293 -0.12073623 0.92479646
1.8006554 -0.53852373 4.1248999
0.0086528137 -0.0025467288 0.019507036
0.35985646 -0.10425942 0.79858994
0.21188298 -0.060443364 0.46297461
0.64120632 -0.180144 1.3798387
0.36657614 -0.10145076 0.77707666
0.65370083 -0.17825267 1.3653518
1.0199728 -0.27409771 2.0994909
0.91806114 -0.24318652 1.8627219
1.0175534 -0.26574484 2.0355105
0.85832906 -0.22104834 1.6931515
1.0671779 -0.27106902 2.076292
0.990578 -0.24821204 1.9012158
1.6696341 -0.41278693 3.1618011
1.0036219 -0.2448626 1.8755603
0.46985254 -0.11314537 0.8666532
0.58631885 -0.13938151 1.0676128
0.88866597 -0.20858227 1.5976658
1.4350458 -0.33261487 2.5477116
0.54470044 -0.12469202 0.95509642
1.5624955 -0.35332209 2.7063215
-0.099539578 -0.021291889 0.1724076
-0.12626982 -0.027343038 0.2214058
-0.11899659 -0.026090162 0.21126086
-0.11868437 -0.026351094 0.21337371
-0.11830612 -0.026603872 0.21542053
-0.11747084 -0.026759105 0.2166775
-0.11652246 -0.026892323 0.21775621
-0.1133636 -0.026512129 0.21467766
-0.11089589 -0.026285483 0.2128424
-0.10944597 -0.026297178 0.21293713
-0.10848831 -0.026429119 0.2140055
-0.10713714 -0.026467562 0.21431679
-0.10547218 -0.026428476 0.21400028
-0.10399943 -0.026437119 0.21407026
-0.10242257 -0.026419159 0.21392485
-0.099812426 -0.026130158 0.2115847
-0.097667046 -0.025955917 0.21017382
-0.09655755 -0.026055845 0.21098296
-0.096715748 -0.026506322 0.21463062
-0.096243814 -0.026795663 0.21697353
-0.095225684 -0.026939819 0.2181408
-0.093778186 -0.026965238 0.21834663
-0.092575528 -0.027063077 0.21913888
-0.091596678 -0.027230773 0.22049674
-0.090156227 -0.027264653 0.22077107
-0.088705309 -0.027296502 0.221029
-0.087418057 -0.027380751 0.22171119
-0.086313032 -0.027526179 0.22288877
-0.085618287 -0.027810257 0.22518905
-0.084278785 -0.027891679 0.22584833
-0.082859904 -0.027949452 0.22631614
-0.080916688 -0.027829165 0.22534214
-0.080165945 -0.028122384 0.22771643
-0.078867726 -0.0282316 0.22860081
-0.078065246 -0.028526515 0.23098882
-0.076419756 -0.028519377 0.23093103
-0.075206093 -0.028676584 0.23220398
-0.073984623 -0.028837739 0.23350888
-0.073569216 -0.029327543 0.23747501
-0.072902933 -0.029737798 0.240797
-0.071889013 -0.030022403 0.24310154
-0.070199676 -0.030031946 0.2431788
-0.06847205 -0.030025175 0.24312398
-0.0665977 -0.029952072 0.24253203
-0.065058485 -0.030029811 0.24316153
-0.063691288 -0.030193295 0.2444853
-0.062860705 -0.03062732 0.24799974
-0.061733987 -0.030937737 0.25051329
-0.060236018 -0.031074887 0.25162384
-0.058085348 -0.030873431 0.24999258
-0.056356113 -0.030890381 0.25012985
-0.054860633 -0.031040689 0.25134695
-0.053779069 -0.031443018 0.25460476
-0.052633259 -0.031834241 0.25777259
-0.051385429 -0.032189496 0.2606492
-0.04979622 -0.032349296 0.26194316
-0.048143506 -0.032478549 0.26298976
-0.046496134 -0.032621887 0.26415044
-0.044901531 -0.032815736 0.2657201
-0.043094147 -0.032864172 0.2661123
-0.041594591 -0.033162437 0.26852745
-0.040083095 -0.033479132 0.27109182
-0.038733702 -0.033969667 0.27506384
-0.037042815 -0.034196578 0.27690122
-0.035241775 -0.034341361 0.27807358
-0.033375792 -0.034436174 0.27884132
-0.031486679 -0.034517482 0.27949971
-0.029608587 -0.034622516 0.28035021
-0.027760882 -0.034780633 0.28163052
-0.02585469 -0.034884155 0.28246877
-0.024001187 -0.035081945 0.28407037
-0.022060009 -0.035175901 0.28483114
-0.020371579 -0.035731971 0.28933382
-0.018683964 -0.036413193 0.2948499
-0.01679131 -0.036815174 0.29810488
-0.0145891 -0.036556341 0.29600903
-0.012277567 -0.035891641 0.29062673
-0.011407993 -0.040019482 0.32405126
-0.012125174 -0.05316921 0.43052906
-0.0053045177 -0.031013936 0.25113031
-0.0032633084 -0.02861939 0.23174088
-0.0014993562 -0.026298869 0.21295081
0 -0.025398077 0.2056568
0.0014089003 -0.024712261 0.20010352
0.0028084968 -0.024630668 0.19944283
0.0041921916 -0.024510499 0.19846977
0.0055701765 -0.024425372 0.19778049
0.0068892804 -0.024167743 0.19569437
0.0082013495 -0.023975428 0.19413713
0.0094880331 -0.023774447 0.19250971
0.010785308 -0.023646932 0.19147719
0.012032426 -0.023450004 0.18988261
0.013258091 -0.023254836 0.18830225
0.014597138 -0.023275943 0.18847317
0.016148474 -0.023603829 0.19112818
0.017915064 -0.024171703 0.19572642
0.019688183 -0.024666632 0.19973405
0.021479363 -0.02511669 0.20337832
0.023201104 -0.025434364 0.20595063
0.024944989 -0.025737515 0.20840533
0.026653841 -0.025972845 0.21031091
0.028392289 -0.026210725 0.21223709
0.029984832 -0.026296858 0.21293454
0.031676032 -0.026457189 0.21423279
0.033323117 -0.026567774 0.21512824
0.035046294 -0.026726773 0.21641569
0.036771432 -0.026873952 0.21760745
0.038496833 -0.027009543 0.2187054
0.039942749 -0.026946155 0.21819212
0.041299984 -0.026829856 0.21725039
0.042480279 -0.026611023 0.21547844
0.043891869 -0.026547177 0.21496145
0.045465976 -0.026582602 0.2152483
0.047198046 -0.026705122 0.21624038
0.048594832 -0.026636204 0.21568234
0.049954724 -0.026551854 0.21499932
0.050955456 -0.026287181 0.21285617
0.052130699 -0.026125088 0.21154365
0.053143524 -0.025892863 0.20966326
0.054422483 -0.025799355 0.20890608
0.055994146 -0.025845878 0.2092828
0.057616435 -0.02591278 0.20982453
0.058644582 -0.025715806 0.20822956
0.059070937 -0.025270987 0.20462772
0.059355102 -0.024787972 0.20071658
0.0599977 -0.02447363 0.19817126
0.060888302 -0.02427244 0.19654213
0.061875135 -0.024117701 0.19528916
0.062856004 -0.023967415 0.19407225
0.063985102 -0.023878843 0.19335505
0.065247349 -0.023842614 0.19306169
0.066443972 -0.023784375 0.19259012
0.067112692 -0.023543276 0.19063786
0.068591513 -0.023590244 0.19101818
0.070455484 -0.023765322 0.19243582
0.072864369 -0.024114128 0.19526023
0.075679794 -0.024582068 0.19904929
0.077919073 -0.024849253 0.20121278
0.08082287 -0.025315031 0.20498435
0.080105752 -0.024650237 0.19960129
0.090725444 -0.027436793 0.22216496
0.44615349 -0.13263695 1.0740062
0.40445364 -0.118236 0.95739681
0.37728271 -0.1084849 0.87843883
0.46220982 -0.13076144 1.0588195
0.43556437 -0.12126739 0.98194301
0.61945587 -0.16977066 1.3746903
0.46654999 -0.1258975 1.0194345
0.28918898 -0.076854631 0.62231791
0.20010647 -0.052386399 0.42419034
0.75397599 -0.19448262 1.5747914
0.34114623 -0.086720891 0.70220834
0.23182313 -0.058088608 0.47036308
1.1865469 -0.29312903 2.3735647
0.70944208 -0.17282902 1.3994548
1.3063203 -0.31387666 2.5415654
0.82211757 -0.19486527 1.5778898
1.1346908 -0.26536795 2.1487741
0.55897057 -0.12900531 1.0445995
0.4595497 -0.10468248 0.84764934
0.85841537 -0.19303459 1.5630661
0.62842911 -0.13952802 1.1298056
0.68650752 -0.1505177 1.2187926
0.71635753 -0.15512331 1.2560858
0.33838841 -0.072382547 0.58610588
-0.10012115 -0.0201925 0.17341492
-0.1316909 -0.026887406 0.23091131
-0.11902311 -0.024604777 0.21130793
-0.11852007 -0.024810923 0.21307832
-0.11842872 -0.025109645 0.21564376
-0.11765922 -0.025270473 0.21702497
-0.11547088 -0.025126791 0.215791
-0.11247143 -0.024800422 0.21298815
-0.10967285 -0.024510127 0.21049505
-0.10848672 -0.024577171 0.21107082
-0.10735159 -0.02465779 0.21176319
-0.10586338 -0.024658436 0.21176875
-0.10398781 -0.024567589 0.21098855
-0.10291194 -0.024665779 0.21183179
-0.10135893 -0.02465081 0.21170327
-0.098940328 -0.024421744 0.209736
-0.097209059 -0.024357963 0.20918825
-0.096844852 -0.024640035 0.21161072
-0.097049035 -0.025077797 0.21537027
-0.096947066 -0.02544909 0.21855895
-0.095365159 -0.025437603 0.21846031
-0.093407154 -0.025323775 0.21748273
-0.091913514 -0.025334144 0.21757178
-0.090766348 -0.025441982 0.21849792
-0.089554995 -0.025535239 0.21929881
-0.088391989 -0.025645796 0.2202483
-0.087657139 -0.025886742 0.22231753
-0.087143011 -0.02620282 0.22503206
-0.086937927 -0.026625248 0.22865991
-0.085407466 -0.026650056 0.22887294
-0.083764404 -0.026640005 0.22878663
-0.081902757 -0.02655868 0.22808821
-0.081034817 -0.026802776 0.23018453
-0.079771794 -0.026923491 0.23122124
-0.078561015 -0.02706724 0.23245578
-0.076490924 -0.026914738 0.23114608
-0.074904643 -0.026929546 0.23127325
-0.073357776 -0.026959497 0.23153046
-0.072618321 -0.027294284 0.23440564
-0.071686596 -0.027570691 0.23677944
-0.07074178 -0.027855108 0.23922203
-0.068965062 -0.027817842 0.23890199
-0.067761213 -0.028015558 0.2406
-0.066092402 -0.028026251 0.24069184
-0.06480781 -0.028204726 0.24222459
-0.063254632 -0.028272795 0.24280918
-0.062301546 -0.028620316 0.24579373
-0.06133531 -0.028981486 0.24889548
-0.060093772 -0.029229989 0.25102964
-0.058162015 -0.029147655 0.25032255
-0.056401748 -0.029148804 0.25033242
-0.054864608 -0.029269056 0.25136515
-0.053766422 -0.029639304 0.25454488
-0.05267179 -0.030037116 0.2579613
-0.051476307 -0.030403772 0.26111019
-0.049909923 -0.03057041 0.26254129
-0.048222538 -0.0306729 0.26342148
-0.046302129 -0.030629443 0.26304829
-0.044827376 -0.030889452 0.26528123
-0.043274488 -0.031115893 0.26722595
-0.041704826 -0.031350303 0.2692391
-0.040153619 -0.031621579 0.2715688
-0.038732909 -0.032027885 0.27505821
-0.037200328 -0.032379586 0.27807865
-0.035464745 -0.032583855 0.27983293
-0.033822436 -0.032902893 0.28257287
-0.031887908 -0.03295977 0.28306133
-0.030052552 -0.03313357 0.28455392
-0.028126555 -0.033225127 0.28534019
-0.02615739 -0.033275854 0.28577584
-0.024237061 -0.033402335 0.28686211
-0.022297334 -0.033522651 0.28789541
-0.020583048 -0.034039866 0.29233727
-0.018617066 -0.034209508 0.29379418
-0.016728066 -0.034580708 0.29698205
-0.0092181815 -0.021778369 0.18703449
-0.00936021 -0.025799571 0.22156891
-0.0087559819 -0.02896096 0.24871922
-0.0065862932 -0.027230725 0.23385978
-0.0045164414 -0.024897359 0.21382064
-0.0028708898 -0.023739122 0.2038736
-0.0013822829 -0.02285994 0.19632311
0 -0.022377212 0.19217741
0.0013443338 -0.022232344 0.19093326
0.0026917122 -0.02225752 0.19114947
0.0040544542 -0.022350604 0.19194889
0.0054288763 -0.022445437 0.19276333
0.0067785354 -0.022420432 0.19254859
0.008115368 -0.022368409 0.19210181
0.0094122542 -0.022236876 0.19097218
0.010716316 -0.022153055 0.19025233
0.011985715 -0.022024171 0.18914546
0.01328302 -0.021967214 0.1886563
0.014683124 -0.022075161 0.18958338
0.016278991 -0.022434913 0.19267294
0.017997002 -0.022894701 0.19662164
0.019705622 -0.023277709 0.19991094
0.021430312 -0.023627371 0.20291387
0.02317955 -0.023958692 0.2057593
0.024987822 -0.024308469 0.20876321
0.026813043 -0.024634955 0.21156709
0.028583663 -0.024879543 0.21366765
0.030208755 -0.024979342 0.2145247
0.031778213 -0.02502582 0.21492389
0.033284627 -0.025020683 0.21487977
0.034889188 -0.025086565 0.21544556
0.036645185 -0.025251305 0.21686035
0.038440697 -0.025429007 0.21838647
0.039955501 -0.025414489 0.21826179
0.041259117 -0.025271691 0.21703544
0.042334851 -0.025004497 0.21474075
0.043667592 -0.024902295 0.21386303
0.045181461 -0.024906753 0.21390133
0.046810567 -0.024972403 0.21446513
0.048004683 -0.024809144 0.21306305
0.049173184 -0.024642939 0.21163566
0.050152324 -0.024394408 0.20950125
0.051556271 -0.024360802 0.20921265
0.052851781 -0.02427925 0.20851228
0.05434949 -0.024292482 0.2086259
0.056057729 -0.024396641 0.20952043
0.057716623 -0.024474533 0.21018937
0.058713339 -0.024274757 0.20847368
0.058946509 -0.023776742 0.20419669
0.058981899 -0.023224566 0.19945456
0.059448946 -0.022864087 0.19635873
0.060382213 -0.022695227 0.19490854
0.061482541 -0.022595266 0.19405007
0.062574066 -0.022496486 0.19320175
0.063660815 -0.02240023 0.19237509
0.064791828 -0.022323236 0.19171385
0.066027001 -0.022284536 0.1913815
0.066928014 -0.022136861 0.19011326
0.068210609 -0.022118716 0.18995742
0.069790483 -0.02219581 0.1906195
0.071383439 -0.022274077 0.19129167
0.072960652 -0.022344625 0.19189756
0.074554831 -0.022417709 0.19252521
0.076248519 -0.022517571 0.19338281
0.078481831 -0.02277049 0.19555493
0.081815116 -0.023328332 0.20034571
0.23965944 -0.067177005 0.57692188
1.6325978 -0.44999334 3.8645811
0.46057853 -0.12486824 1.0723791
1.7184255 -0.45837101 3.9365294
1.9767046 -0.51889485 4.4563131
1.8130484 -0.46849778 4.023499
1.9840012 -0.5047853 4.3351393
1.679588 -0.42085934 3.6143756
0.40358827 -0.099618934 0.85553586
0.22468019 -0.054642931 0.46927816
1.934514 -0.46366137 3.9819634
0.83935559 -0.19830154 1.7030305
1.9906772 -0.46368244 3.9821441
1.7952355 -0.41235104 3.5413055
0.44359726 -0.10049493 0.86305898
0.001790863 -0.00040022921 0.0034372027
1.7932609 -0.39542156 3.3959143
0.70844221 -0.15415904 1.3239309
2.2153637 -0.4758088 4.0862865
0.32543835 -0.069000505 0.59258223
2.2421026 -0.4693605 4.0309081
2.3634796 -0.48858485 4.1960082
1.9995533 -0.40824991 3.5060849
2.1489253 -0.4333967 3.7220478
-0.12066283 -0.02286049 0.20899417
-0.098336466 -0.018860597 0.17242651
-0.11883079 -0.023076231 0.21096648
-0.1189672 -0.02339516 0.21388219
-0.118283 -0.023558822 0.21537842
-0.11737772 -0.023682134 0.21650575
-0.11542916 -0.023595426 0.21571305
