# .PCD v0.7 - Point Cloud Data file format
VERSION 0.7
FIELDS x y z
SIZE 4 4 4
TYPE F F F
COUNT 1 1 1
WIDTH 1346
HEIGHT 1
VIEWPOINT 0 0 0 1 0 0 0
POINTS 1346
DATA ascii
0.048684146 -0.03226814 0.22304904
0.050552819 -0.03245962 0.22437263
0.053539816 -0.033335805 0.23042914
0.05662819 -0.034221716 0.23655288
0.060409691 -0.035463911 0.24513938
0.069054388 -0.039412759 0.27243525
0.14865193 -0.082549959 0.57061517
0.12447917 -0.067307137 0.46525127
0.17457877 -0.091976069 0.63577181
0.14447315 -0.074212179 0.51298141
0.16623683 -0.083308913 0.57586128
0.15389585 -0.075287983 0.52041775
0.17647851 -0.084327929 0.58290505
0.20104738 -0.093884483 0.64896345
0.025012089 -0.011420511 0.078942694
0.21919437 -0.097908325 0.67677772
0.22721691 -0.099332377 0.68662131
0.15638676 -0.066943251 0.46273592
0.20749967 -0.087010033 0.60144478
0.012853908 -0.0052821804 0.036512341
0.17138544 -0.069048107 0.47728547
0.14172034 -0.055998564 0.38708231
0.2189023 -0.084863812 0.5866093
0.21052848 -0.080106013 0.55372173
0.17643693 -0.065913573 0.45561844
0.15375921 -0.056415848 0.38996676
0.22696471 -0.081814736 0.56553298
0.24030197 -0.08512897 0.58844221
0.17996955 -0.062675096 0.43323293
1.8968884 -0.64958888 4.4901934
1.7957684 -0.60487902 4.1811423
0.29518509 -0.097825199 0.67620319
1.6393014 -0.53464597 3.6956661
0.095219925 -0.030570032 0.2113111
0.18050267 -0.057058234 0.39440709
0.30432186 -0.094740845 0.65488297
2.0817719 -0.63841987 4.4129887
0.49116167 -0.14841016 1.0258646
1.5930282 -0.47437569 3.2790561
0.66715145 -0.19582784 1.3536328
2.2060213 -0.63840961 4.4129176
2.210959 -0.63095188 4.3613672
1.5149612 -0.42640933 2.9474955
1.5234827 -0.42301315 2.9240198
2.0663066 -0.56608492 3.9129829
2.2604036 -0.61111152 4.2242236
1.3156457 -0.35107204 2.4267368
2.0079877 -0.52894986 3.6562924
0.66300124 -0.17243893 1.1919601
0.043519873 -0.011177527 0.077263094
0.37003985 -0.093866698 0.64884055
1.7430376 -0.43675807 3.0190296
-0.12425241 -0.029615546 0.21521148
-0.12921409 -0.031178389 0.22656839
-0.11798103 -0.028823785 0.20945787
-0.11764212 -0.029104793 0.21149993
-0.11655226 -0.029204845 0.21222697
-0.11443589 -0.029046934 0.21107946
-0.11152878 -0.02868152 0.20842406
-0.1105569 -0.028810672 0.20936258
-0.10968186 -0.028968889 0.21051233
-0.10886384 -0.029146714 0.21180454
-0.10756066 -0.029197775 0.21217559
-0.10532633 -0.028993953 0.21069445
-0.1039081 -0.029012168 0.21082681
-0.1026369 -0.029072559 0.21126567
-0.1022591 -0.029391507 0.21358342
-0.10119367 -0.029519388 0.21451272
-0.099648111 -0.029508963 0.21443695
-0.097339362 -0.029268732 0.21269123
-0.095712297 -0.029229173 0.21240377
-0.09456189 -0.029336238 0.21318179
-0.094002314 -0.029633 0.21533832
-0.093043678 -0.029811634 0.21663643
-0.091842636 -0.029917266 0.21740402
-0.090766117 -0.030067723 0.21849738
-0.090662539 -0.030551229 0.22201094
-0.090379149 -0.030990046 0.22519974
-0.089768916 -0.031330459 0.22767347
-0.088069439 -0.031296179 0.22742437
-0.086259805 -0.031220762 0.22687633
-0.084337801 -0.031101061 0.22600649
-0.082579814 -0.031038402 0.22555114
-0.081136502 -0.031093879 0.22595428
-0.080394179 -0.031425588 0.22836475
-0.079827093 -0.031840727 0.23138152
-0.079403959 -0.032331787 0.23494998
-0.078029282 -0.032448046 0.2357948
-0.076339111 -0.032435313 0.23570228
-0.074586585 -0.032394927 0.23540878
-0.073312059 -0.032565035 0.23664495
-0.071588598 -0.032538999 0.23645575
-0.070338413 -0.032731965 0.237858
-0.068905316 -0.032847147 0.23869501
-0.067889653 -0.03317206 0.24105608
-0.067023784 -0.033588696 0.24408373
-0.06630823 -0.034104578 0.24783255
-0.06547226 -0.034584735 0.25132176
-0.064182341 -0.03484511 0.25321391
-0.062010538 -0.034627907 0.25163552
-0.059746299 -0.034344792 0.24957816
-0.057957999 -0.034326397 0.24944451
-0.05682886 -0.034709454 0.25222808
-0.056215543 -0.035442431 0.25755453
-0.054911949 -0.035774566 0.2599681
-0.053052403 -0.035754923 0.25982535
-0.05042978 -0.035201229 0.25580174
-0.048548169 -0.035142921 0.25537804
-0.047100272 -0.035406165 0.25729099
-0.046094291 -0.036035948 0.26186749
-0.044546667 -0.036277119 0.26362005
-0.042896856 -0.036452428 0.26489401
-0.041292794 -0.036684316 0.26657909
-0.039942689 -0.037174642 0.27014226
-0.038469739 -0.037593957 0.27318934
-0.036856093 -0.037912682 0.27550542
-0.035222128 -0.038244754 0.27791858
-0.033370581 -0.038365744 0.27879781
-0.031553965 -0.038544532 0.28009698
-0.029617794 -0.038591377 0.28043738
-0.02775372 -0.03874556 0.28155786
-0.025857849 -0.038875666 0.28250328
-0.024088101 -0.039232876 0.28509906
-0.022148969 -0.039354067 0.28597978
-0.020280501 -0.03963761 0.28804022
-0.018348766 -0.039846774 0.2895602
-0.016506003 -0.040325593 0.29303968
-0.014701026 -0.041046716 0.29827997
-0.012846985 -0.041848388 0.30410561
-0.01089162 -0.042574666 0.30938333
-0.0088026887 -0.043011457 0.31255743
-0.006633848 -0.043218832 0.31406441
-0.0044438448 -0.043426786 0.31557554
-0.002239574 -0.043771777 0.3180826
0 -0.044501487 0.32338524
0.0023183303 -0.045311049 0.32926822
0.0047212411 -0.046137601 0.33527461
0.0071199583 -0.046385795 0.33707821
0.0094714025 -0.046278909 0.33630151
0.019418029 -0.07590387 0.55158138
0.016357597 -0.053284027 0.38720658
0.012515129 -0.034943473 0.25392866
0.013549669 -0.033103012 0.24055432
0.014463069 -0.031408466 0.22824036
0.015533042 -0.030358847 0.22061294
0.016712749 -0.029695047 0.2157892
0.018072207 -0.02943464 0.21389686
0.019160347 -0.02880639 0.20933145
0.02010926 -0.028073518 0.20400581
0.021201646 -0.027625309 0.20074873
0.022785902 -0.027833963 0.20226499
0.024640674 -0.028329078 0.20586292
0.026609378 -0.028892893 0.20996007
0.028193794 -0.029002054 0.21075332
0.029488122 -0.02881681 0.2094072
0.030752096 -0.028620962 0.207984
0.032281548 -0.028678769 0.20840406
0.033971582 -0.028868003 0.20977919
0.035800215 -0.029154338 0.21185996
0.037386622 -0.0292284 0.21239814
0.038969673 -0.029294239 0.21287659
0.040854614 -0.029573731 0.21490763
0.043181743 -0.030141922 0.21903656
0.045518633 -0.030677503 0.22292854
0.047308531 -0.030821018 0.22397146
0.048826277 -0.030783694 0.22370023
0.050825756 -0.03104293 0.22558405
0.054180313 -0.032089014 0.23318578
0.057845209 -0.03325196 0.24163674
0.061208807 -0.034180205 0.24838214
0.078002669 -0.042348277 0.30773821
0.097559974 -0.051534586 0.37449363
0.10817435 -0.055637747 0.40431064
0.01622083 -0.0081290035 0.059072178
0.17622906 -0.086108565 0.62573731
0.17788978 -0.084800012 0.61622822
0.16126139 -0.075042956 0.54532522
0.20549233 -0.093401954 0.67873722
0.1173669 -0.052134082 0.37885013
0.10649792 -0.046254866 0.33612677
0.1090514 -0.046334259 0.33670372
0.16378616 -0.068109572 0.49494144
0.046154749 -0.018793339 0.13656822
0.21261856 -0.084807426 0.61628211
0.2487784 -0.097245932 0.70667082
0.20128639 -0.077138834 0.56055564
0.23359638 -0.087799408 0.63802439
0.17576756 -0.064817406 0.47101781
0.071337968 -0.025819972 0.18762964
0.16268586 -0.057811722 0.42010859
0.11496454 -0.04012404 0.29157504
0.12553884 -0.043045931 0.31280792
0.3386884 -0.11413035 0.8293671
1.816828 -0.60185325 4.3735723
0.092924438 -0.030269658 0.2199648
0.35641363 -0.11419661 0.82984877
1.7315108 -0.54583615 3.9665048
1.4158107 -0.43923149 3.1918256
0.20264219 -0.061884046 0.44970155
0.0037117538 -0.0011160781 0.0081103621
1.7649878 -0.52266884 3.7981515
1.888751 -0.55097097 4.0038185
0.11981527 -0.034437533 0.2502521
0.39478824 -0.11182629 0.81262392
0.2076595 -0.057980586 0.4213357
0.39130178 -0.10771651 0.78275877
0.35713664 -0.09694618 0.70449251
0.2101173 -0.056255858 0.40880239
0.085323289 -0.022535367 0.16376095
0.32514164 -0.084730573 0.61572361
0.39487556 -0.10154895 0.73794013
0.48028398 -0.12190911 0.88589418
0.20590694 -0.051594716 0.37493059
0.53770697 -0.13302931 0.96670294
0.38341612 -0.093671873 0.68069863
1.8570428 -0.44809046 3.2562022
2.2791183 -0.54322755 3.9475486
-0.13789751 -0.031182325 0.23884551
-0.10387074 -0.023777936 0.18213052
-0.1163289 -0.026962711 0.20652477
-0.11725771 -0.027522016 0.21080884
-0.11598868 -0.027573183 0.21120076
-0.11417004 -0.027493333 0.21058913
-0.11139451 -0.027177913 0.20817314
-0.10995811 -0.027185163 0.20822866
-0.10825045 -0.027124636 0.20776504
-0.10697476 -0.027172174 0.20812917
-0.10553402 -0.027178528 0.20817782
-0.1041044 -0.027187962 0.20825011
-0.10345833 -0.027405223 0.20991422
-0.10298647 -0.027675595 0.21198522
-0.10291934 -0.028064286 0.21496244
-0.10209642 -0.028255409 0.21642637
-0.10066231 -0.028280618 0.21661945
-0.09798079 -0.027950753 0.21409279
-0.096293569 -0.027898654 0.21369375
-0.095545016 -0.028121172 0.21539815
-0.095266365 -0.028491402 0.21823399
-0.094160728 -0.028622391 0.2192373
-0.09244664 -0.02856971 0.21883379
-0.090524457 -0.028449841 0.21791564
-0.089723431 -0.028684271 0.2197113
-0.089987658 -0.029273458 0.22422425
-0.090137623 -0.029845854 0.22860861
-0.088801868 -0.029938174 0.22931574
-0.086793669 -0.029803017 0.2282805
-0.0845479 -0.029579639 0.2265695
-0.082689002 -0.029485624 0.22584938
-0.081256598 -0.029542983 0.22628872
-0.080418803 -0.02982315 0.2284347
-0.079735585 -0.030173248 0.23111632
-0.079252318 -0.03061517 0.23450129
-0.077845499 -0.030711539 0.23523943
-0.076304108 -0.030757852 0.23559418
-0.074650951 -0.030760169 0.23561193
-0.073360294 -0.030915361 0.23680066
-0.071681745 -0.030910503 0.23676343
-0.070344515 -0.031056097 0.23787864
-0.068918236 -0.031168522 0.23873977
-0.067919746 -0.031484872 0.24116293
-0.067108497 -0.031906471 0.2443922
-0.066326767 -0.032364666 0.24790184
-0.065366015 -0.032757912 0.25091392
-0.064008422 -0.032968603 0.25252774
-0.061855316 -0.032769881 0.25100562
-0.059728809 -0.032573983 0.24950509
-0.05804928 -0.03261736 0.24983737
-0.057350624 -0.033231817 0.25454387
-0.056876369 -0.034020137 0.26058212
-0.055760752 -0.034464605 0.26398659
-0.053483151 -0.034196757 0.26193497
-0.050953981 -0.03374318 0.25846073
-0.049070291 -0.033699293 0.25812459
-0.047705486 -0.034022085 0.26059705
-0.046594445 -0.034558911 0.26470894
-0.045032971 -0.034792472 0.26649794
-0.043266024 -0.03488069 0.26717368
-0.041622434 -0.035080899 0.26870719
-0.040147468 -0.035449065 0.2715272
-0.038569897 -0.03575892 0.2739006
-0.036807559 -0.035921074 0.27514264
-0.035186522 -0.036246806 0.27763763
-0.033415541 -0.036447309 0.27917337
-0.031803008 -0.036856506 0.28230768
-0.029951887 -0.037025321 0.28360078
-0.028065845 -0.037172008 0.28472432
-0.026015453 -0.037106838 0.28422517
-0.024240272 -0.037456062 0.2869001
-0.022380946 -0.037726946 0.28897497
-0.020588228 -0.038175516 0.29241085
-0.018600909 -0.038322825 0.2935392
-0.016643632 -0.03857661 0.29548308
-0.014707862 -0.038959865 0.29841867
-0.012779407 -0.039493479 0.30250597
-0.010797789 -0.04004338 0.30671802
-0.0086964183 -0.040313113 0.3087841
-0.0065557901 -0.040520024 0.31036893
-0.0043867729 -0.040670644 0.31152263
-0.0022219857 -0.041200947 0.31558457
0 -0.042185474 0.32312569
0.0023300722 -0.043205127 0.33093587
0.0047314116 -0.04386586 0.33599684
0.0071276305 -0.044054456 0.33744141
0.012081742 -0.056006122 0.42898697
0.0070606484 -0.026184268 0.20056218
0.014760711 -0.045616504 0.34940612
0.011960983 -0.03168362 0.24268521
0.01305515 -0.030259227 0.23177488
0.014000581 -0.028844927 0.22094186
0.015048081 -0.027902754 0.21372515
0.016254829 -0.027400319 0.20987667
0.017611107 -0.027212679 0.20843944
0.018670293 -0.026630154 0.20397748
0.019630069 -0.025999187 0.1991445
0.020769686 -0.025674652 0.19665869
0.022387866 -0.025945295 0.19873172
0.024310639 -0.026516328 0.20310561
0.026376298 -0.027171101 0.20812097
0.028040688 -0.027365347 0.20960881
0.029359339 -0.027219627 0.20849265
0.030710174 -0.027116206 0.20770046
0.032291815 -0.027216714 0.20847031
0.034007508 -0.027416555 0.21000105
0.035730619 -0.027605478 0.2114481
0.037271429 -0.027644064 0.2117437
0.038937714 -0.027769178 0.21270201
0.040927686 -0.028107313 0.21529201
0.043063022 -0.028517559 0.21843435
0.045232534 -0.028921368 0.22152737
0.046989877 -0.029043503 0.22246288
0.048803579 -0.029191464 0.22359622
0.051022135 -0.029564774 0.22645563
0.054358169 -0.030543359 0.23395126
0.057883736 -0.031567749 0.24179767
0.061355002 -0.032504827 0.24897538
0.12863146 -0.066253774 0.50748026
0.1485803 -0.074460417 0.57034022
0.13292566 -0.064862117 0.49682075
0.15397029 -0.07320457 0.56072092
0.20721839 -0.096058145 0.73577124
0.25623101 -0.1158814 0.8876102
0.12621087 -0.055720292 0.4267976
0.17932644 -0.077328898 0.5923118
0.14340225 -0.060432311 0.46288997
0.1870742 -0.077084541 0.59044009
0.23840331 -0.096099325 0.73608661
0.2689645 -0.10611165 0.81277734
0.30540729 -0.11797883 0.90367579
0.21631213 -0.081856042 0.62698811
0.25268137 -0.093706377 0.71775746
0.21639286 -0.078675345 0.60262513
0.20547843 -0.07327044 0.56122547
0.13312884 -0.046576001 0.35675555
0.22354347 -0.07675986 0.58795315
0.29919416 -0.10086869 0.77261811
0.18274692 -0.06051011 0.46348587
0.15504237 -0.050436098 0.38632253
0.22860195 -0.073083252 0.55979168
0.33683908 -0.10586109 0.81085825
1.7358866 -0.53645837 4.1090798
0.13648571 -0.041488074 0.31778386
1.2245618 -0.36623088 2.805198
0.86780441 -0.25541547 1.9563916
1.4364641 -0.41617954 3.1877868
0.75095028 -0.21422185 1.6408629
0.22458418 -0.063095905 0.4832921
0.2778475 -0.076894909 0.58898765
0.36970988 -0.10081336 0.77219439
0.40265074 -0.1082045 0.82880795
0.87902242 -0.23284549 1.7835133
0.5810979 -0.15175985 1.1624264
0.55122244 -0.14195815 1.0873488
0.93646377 -0.23786692 1.8219759
0.33689025 -0.084415585 0.64659327
0.98639607 -0.24386866 1.8679471
0.62531346 -0.1525633 1.1685805
0.33542877 -0.080774732 0.61870563
0.56764591 -0.13494252 1.0336117
0.90022504 -0.21129534 1.6184471
1.0907086 -0.25280443 1.9363918
1.0929765 -0.25020254 1.9164623
0.92608958 -0.20941368 1.6040342
-0.095652126 -0.020460349 0.16567433
-0.11766165 -0.025478987 0.20631196
-0.1141803 -0.025034185 0.20271024
-0.11441001 -0.025402073 0.20568916
-0.114512 -0.025750676 0.20851192
-0.11278636 -0.025692012 0.20803688
-0.11140091 -0.025710315 0.20818509
-0.10949079 -0.025606401 0.20734368
-0.10760701 -0.025505925 0.20653008
-0.10617533 -0.025511323 0.2065738
-0.10463008 -0.025489205 0.2063947
-0.10366772 -0.025610462 0.20737657
-0.10312569 -0.02584051 0.20923933
-0.10309043 -0.026206046 0.2121992
-0.10343712 -0.026680853 0.21604387
-0.10303208 -0.026973041 0.21840981
-0.10158593 -0.026997397 0.21860702
-0.099052779 -0.026729176 0.21643516
-0.097616166 -0.026753094 0.21662882
-0.096992485 -0.027004104 0.21866135
-0.096474767 -0.02729319 0.22100218
-0.09499193 -0.02731424 0.22117262
-0.09256079 -0.027058771 0.21910401
-0.089803301 -0.026697619 0.21617962
-0.088578589 -0.026787549 0.21690781
-0.088790096 -0.027322592 0.22124025
-0.089588799 -0.028060662 0.22721665
-0.088874288 -0.028342992 0.22950277
-0.087009437 -0.028262127 0.22884798
-0.084709167 -0.028034111 0.22700165
-0.083042659 -0.028011097 0.2268153
-0.081625417 -0.02807291 0.22731584
-0.080559127 -0.028260313 0.22883329
-0.079324178 -0.028394992 0.22992383
-0.078240111 -0.028590413 0.23150623
-0.076804936 -0.028663125 0.23209499
-0.075551838 -0.028808419 0.23327149
-0.074540965 -0.029054591 0.23526482
-0.07365223 -0.029360635 0.23774296
-0.072121829 -0.029419178 0.23821701
-0.070872948 -0.029598072 0.23966558
-0.06962835 -0.029787529 0.24119967
-0.068749622 -0.030146891 0.24410957
-0.067501247 -0.030358439 0.24582253
-0.066197991 -0.030555787 0.24742053
-0.064856686 -0.030745763 0.24895881
-0.06372188 -0.031046905 0.25139728
-0.062000312 -0.031071205 0.25159401
-0.060568098 -0.031246202 0.25301105
-0.058991365 -0.031354997 0.25389197
-0.058203638 -0.031903062 0.2583299
-0.057298586 -0.032420106 0.26251656
-0.05590063 -0.032683432 0.2646488
-0.053720199 -0.032491658 0.26309592
-0.05140182 -0.032199763 0.26073235
-0.049494509 -0.032153293 0.26035607
-0.047865655 -0.032291103 0.26147196
-0.046495929 -0.032621741 0.26414928
-0.045130182 -0.032982845 0.26707321
-0.043682307 -0.033312712 0.26974425
-0.042335067 -0.033752799 0.27330783
-0.040681902 -0.033979282 0.27514169
-0.038952354 -0.034161422 0.27661657
-0.036980551 -0.034139097 0.27643579
-0.035207447 -0.034307908 0.27780274
-0.03352293 -0.034587987 0.28007057
-0.031995349 -0.035075113 0.28401503
-0.030229067 -0.035348073 0.28622529
-0.028441677 -0.035633579 0.28853711
-0.026516668 -0.035777323 0.28970104
-0.024953427 -0.036473814 0.29534081
-0.023151133 -0.03691576 0.29891938
-0.021323217 -0.037401151 0.30284974
-0.019174386 -0.037368972 0.30258921
-0.017098214 -0.037488062 0.30355349
-0.014992424 -0.03756696 0.30419236
-0.012973405 -0.037925821 0.30709818
-0.010952421 -0.038421325 0.31111044
-0.008854676 -0.038827989 0.31440336
-0.0066625676 -0.038954049 0.31542408
-0.0044469666 -0.039000135 0.31579724
-0.0022508032 -0.039479326 0.31967744
0 -0.040349994 0.32672751
0.0023429655 -0.041095864 0.33276707
0.00475113 -0.041667666 0.33739716
0.0085285287 -0.049863771 0.40376377
0.014874967 -0.065227129 0.52816606
0.012671625 -0.044452332 0.35994554
0.010076786 -0.029457986 0.23853125
0.011210267 -0.0280899 0.2274534
0.012297291 -0.026961975 0.21832022
0.013278103 -0.025877703 0.20954052
0.014399295 -0.025256518 0.20451055
0.015675826 -0.024995968 0.2024008
0.016993839 -0.024839479 0.20113365
0.018120274 -0.024448581 0.19796841
0.019153075 -0.023996213 0.19430545
0.02046111 -0.023926005 0.19373694
0.02218318 -0.024318459 0.19691478
0.024112867 -0.024878956 0.2014533
0.026105158 -0.02543818 0.20598154
0.027662277 -0.025536805 0.20678014
0.028961996 -0.025399825 0.20567095
0.030344136 -0.025344733 0.20522486
0.031932324 -0.025458926 0.20614953
0.033557761 -0.025591597 0.2072238
0.035173152 -0.025705868 0.20814909
0.03674541 -0.025780736 0.20875533
0.038516693 -0.02598411 0.21040212
0.040467151 -0.026288819 0.21286944
0.042263545 -0.026475253 0.21437906
0.044357363 -0.026828721 0.21724121
0.046240442 -0.027035408 0.21891482
0.048349183 -0.027356446 0.22151437
0.050743863 -0.02781415 0.22522056
0.053802159 -0.028596837 0.23155823
0.056968644 -0.029389298 0.23797506
0.07231757 -0.036241654 0.29346091
0.090464801 -0.04407673 0.35690418
0.13288322 -0.062994212 0.5100854
0.13645151 -0.062983528 0.50999892
0.126046 -0.056688726 0.45902774
0.089027405 -0.039038755 0.31610999
0.14942436 -0.063924856 0.51762116
0.12683162 -0.052967623 0.42889673
0.18001842 -0.073431224 0.5945974
0.22712083 -0.090539172 0.73312622
0.16307075 -0.063561745 0.51468086
0.24318407 -0.092727706 0.75084758
0.16744897 -0.062490914 0.50601006
0.1981317 -0.072401062 0.58625585
0.08831422 -0.031613082 0.2559818
0.21487688 -0.07537926 0.61037135
0.23720685 -0.081581049 0.66058928
0.16163826 -0.05452216 0.4414843
0.22592846 -0.074769989 0.60543782
0.24027631 -0.078045778 0.63196301
0.18685785 -0.059591029 0.48252869
0.2470496 -0.077379934 0.62657142
0.27127495 -0.083477043 0.67594182
0.27195194 -0.082242526 0.66594547
0.11843969 -0.03521093 0.28511479
0.19221374 -0.056190826 0.45499611
1.7105148 -0.49184614 3.9826441
0.068713918 -0.019439509 0.15740827
1.8818675 -0.52393901 4.2425113
1.8836437 -0.51623923 4.1801634
1.7913983 -0.4834049 3.9142926
1.9279902 -0.51238114 4.1489229
0.017791333 -0.0046576401 0.037714481
0.26387969 -0.068065852 0.55115217
0.44586551 -0.113341 0.91776031
0.19435614 -0.048700392 0.39434353
0.23240903 -0.057415199 0.46491027
0.37891805 -0.092309207 0.74745876
0.2793867 -0.067129761 0.54357231
2.0036705 -0.47492698 3.8456438
2.2970996 -0.53721833 4.3500381
0.2261835 -0.052201092 0.42268986
2.3460453 -0.53441411 4.3273315
2.3091352 -0.51926255 4.2046442
2.1082113 -0.46807912 3.7901947
2.1285739 -0.46669266 3.7789681
2.3567014 -0.5103308 4.1323204
1.4514596 -0.31047267 2.5140018
-0.11093328 -0.022373099 0.19214207
-0.10762087 -0.021973012 0.18870609
-0.11284026 -0.023326641 0.20033118
-0.11191162 -0.023427516 0.2011975
-0.11178048 -0.023700064 0.20353816
-0.11172049 -0.023994973 0.20607086
-0.11070374 -0.024089448 0.20688222
-0.10936459 -0.024115352 0.2071047
-0.10746071 -0.024015749 0.2062493
-0.10624599 -0.024069544 0.20671129
-0.10499448 -0.024116378 0.2071135
-0.10442924 -0.024324389 0.20889992
-0.10345421 -0.024441523 0.20990589
-0.10338191 -0.02477842 0.21279918
-0.10301179 -0.025052791 0.21515553
-0.10236777 -0.025267752 0.21700159
-0.10115197 -0.025345949 0.21767317
-0.099478625 -0.025310138 0.21736564
-0.098727159 -0.025511431 0.21909434
-0.097888619 -0.025696252 0.22068159
-0.096750565 -0.025807144 0.22163397
-0.094411887 -0.025596172 0.21982209
-0.091899797 -0.025330363 0.21753931
-0.089267574 -0.025021873 0.21488999
-0.088211209 -0.02515208 0.2160082
-0.088596322 -0.02570508 0.22075744
-0.089187749 -0.02633876 0.22619951
-0.088446096 -0.026594641 0.22839704
-0.086661309 -0.026540533 0.22793236
-0.084681861 -0.026423642 0.22692849
-0.083548576 -0.026571363 0.22819713
-0.082271196 -0.026678154 0.22911426
-0.08102157 -0.026798395 0.2301469
-0.079132952 -0.026707878 0.22936955
-0.07731659 -0.026638487 0.22877361
-0.07556998 -0.026590688 0.22836311
-0.074581444 -0.026813351 0.23027535
-0.074025221 -0.027204787 0.23363703
-0.073427558 -0.027598441 0.23701777
-0.072109878 -0.027733486 0.23817755
-0.071129046 -0.028007599 0.24053164
-0.07016062 -0.02830008 0.24304351
-0.069080405 -0.028560974 0.24528407
-0.067245774 -0.028515335 0.24489214
-0.065459132 -0.028488187 0.24465898
-0.063885719 -0.028554872 0.24523166
-0.063310549 -0.029083837 0.24977449
-0.062235743 -0.02940695 0.25254938
-0.061171167 -0.029754041 0.25553024
-0.05976123 -0.029949095 0.25720537
-0.05855931 -0.030263847 0.2599085
-0.057218853 -0.030524995 0.26215127
-0.055757619 -0.030736974 0.26397175
-0.053809948 -0.030686174 0.26353547
-0.052024692 -0.03072767 0.26389185
-0.050079808 -0.030674467 0.26343495
-0.048120793 -0.030608185 0.26286569
-0.046425082 -0.030710777 0.26374677
-0.045089185 -0.031069858 0.26683059
-0.044043232 -0.031668644 0.27197301
-0.042944152 -0.032281928 0.27723995
-0.041431554 -0.03262797 0.28021181
-0.039455354 -0.032625269 0.28018856
-0.037388831 -0.032543659 0.27948773
-0.035646349 -0.032750707 0.28126588
-0.03384798 -0.032927744 0.28278628
-0.032266587 -0.033351175 0.28642276
-0.03041707 -0.033535458 0.28800538
-0.028702253 -0.033905186 0.29118061
-0.027086977 -0.034458417 0.29593182
-0.025547301 -0.035208046 0.30236971
-0.023801636 -0.035784278 0.30731845
-0.021929486 -0.036266576 0.31146047
-0.019784242 -0.036354233 0.31221327
-0.01760524 -0.036394022 0.31255496
-0.015379882 -0.036335662 0.31205377
-0.013272036 -0.036581747 0.31416714
-0.01116696 -0.036935426 0.31720459
-0.0090422807 -0.03738489 0.32106462
-0.0068415646 -0.037714846 0.32389829
-0.0045650546 -0.037748013 0.32418317
-0.0022895141 -0.037863564 0.32517549
0 -0.038120236 0.32737985
0.0023599246 -0.039028 0.33517578
0.005743505 -0.047492508 0.40786973
0.001450255 -0.0079946835 0.068659022
0.013776041 -0.056956399 0.48914641
0.0082810698 -0.02739016 0.23522903
0.0094896564 -0.026156362 0.22463307
0.010512416 -0.024836058 0.21329418
0.01147639 -0.023724301 0.20374632
0.012527891 -0.023020435 0.19770147
0.013786913 -0.022800542 0.195813
0.015183642 -0.022827659 0.19604589
0.016495651 -0.022733502 0.19523725
0.017657114 -0.022462314 0.19290827
0.018705098 -0.022095818 0.18976076
0.02013405 -0.022198213 0.19064015
0.021943921 -0.022681531 0.19479093
0.023909107 -0.023259083 0.19975097
0.025767537 -0.023674376 0.20331757
0.027132485 -0.02361642 0.20281984
0.028305076 -0.023405207 0.20100591
0.029662563 -0.023359714 0.20061521
0.031286679 -0.023518786 0.20198135
0.032868791 -0.023633828 0.20296933
0.034482732 -0.023761209 0.20406328
0.036060736 -0.02385463 0.2048656
0.037926581 -0.024123954 0.20717858
0.039827917 -0.024395064 0.20950688
0.041414376 -0.024460832 0.2100717
0.043177389 -0.02462275 0.21146226
0.045022592 -0.024819177 0.2131492
0.047442146 -0.025309337 0.21735874
0.050136276 -0.025910765 0.22252385
0.053325914 -0.026724063 0.22950852
0.056240492 -0.027355729 0.23493333
0.071491487 -0.03378037 0.29010871
0.082552679 -0.037923358 0.32568905
0.064935111 -0.029023916 0.24925986
0.066413 -0.028903313 0.24822412
0.071938246 -0.030505164 0.26198095
0.17100427 -0.070700921 0.60718554
0.20663455 -0.083348386 0.71580309
0.17515172 -0.068967305 0.59229714
0.22116265 -0.085059233 0.73049593
0.14520662 -0.05457728 0.46871433
0.2259935 -0.0830542 0.71327657
0.23546126 -0.084652491 0.72700286
0.12759365 -0.044896174 0.3855722
0.17533641 -0.060410023 0.51880646
0.21664479 -0.073119007 0.62795228
0.22105049 -0.073113844 0.62790793
0.2743687 -0.088969789 0.76408011
0.22146243 -0.07043279 0.60488278
0.04891127 -0.015261992 0.13107128
0.20907281 -0.064029768 0.54989314
0.27958092 -0.084066503 0.72197032
0.18022619 -0.053224064 0.45709276
0.11763936 -0.034131542 0.29312462
0.29671541 -0.084603876 0.72658527
0.62059665 -0.17395444 1.4939357
1.3638879 -0.37592876 3.2285082
1.6955389 -0.4596805 3.9477751
1.979028 -0.52788383 4.5335116
1.7209517 -0.45175841 3.8797398
1.0319921 -0.26667023 2.2901866
1.1767566 -0.29939973 2.5712705
1.7688441 -0.44322452 3.8064499
1.4177423 -0.34994566 3.005363
0.34454632 -0.08379475 0.7196365
1.9136285 -0.45865557 3.9389729
1.8942964 -0.44753605 3.8434777
0.21627393 -0.050376035 0.43263367
0.76904857 -0.17664422 1.5170355
0.5580681 -0.12642777 1.0857724
0.56410646 -0.12606877 1.0826894
0.83937079 -0.18508478 1.5895239
1.306008 -0.28419104 2.4406569
1.144163 -0.24573971 2.1104336
2.021225 -0.42854676 3.6803961
1.4504076 -0.30362752 2.607579
1.9253281 -0.398009 3.4181352
1.597445 -0.32615125 2.8010144
1.4447557 -0.29137927 2.5023901
-0.11403855 -0.021605469 0.19752055
-0.11587578 -0.022224579 0.20318055
-0.11181542 -0.021713888 0.19851173
-0.11066029 -0.021761589 0.19894783
-0.11034508 -0.021977801 0.20092449
-0.11022122 -0.022238238 0.20330542
-0.10960199 -0.022404267 0.20482329
-0.10852371 -0.022479637 0.20551232
-0.10682965 -0.022427766 0.2050381
-0.10664394 -0.022695472 0.20748554
-0.10626622 -0.022929184 0.20962217
-0.10552753 -0.023090499 0.21109691
-0.10457146 -0.023208179 0.21217276
-0.10360037 -0.023325883 0.21324883
-0.1027683 -0.023478813 0.21464697
-0.10169212 -0.023579706 0.21556933
-0.10103225 -0.02378165 0.21741554
-0.099539272 -0.023790687 0.21749815
-0.099098749 -0.024055483 0.21991897
-0.098120362 -0.024196049 0.22120404
-0.097148478 -0.024342781 0.22254547
-0.094708569 -0.024120446 0.22051287
-0.092212394 -0.023876129 0.21827929
-0.089785963 -0.023641897 0.2161379
-0.089066483 -0.023856802 0.21810257
-0.089144714 -0.024296664 0.22212386
-0.088914052 -0.02466654 0.22550535
-0.087682106 -0.024767041 0.22642414
-0.085910603 -0.02471604 0.22595789
-0.084049754 -0.024636924 0.2252346
-0.083004594 -0.024798458 0.22671136
-0.081916526 -0.024953257 0.22812654
-0.081042551 -0.025180766 0.23020649
-0.079051331 -0.025063341 0.22913297
-0.076959804 -0.024908558 0.22771791
-0.074680351 -0.02468507 0.22567475
-0.073639162 -0.024870066 0.227366
-0.073253594 -0.025289621 0.23120165
-0.072906546 -0.025741847 0.23533598
-0.072043523 -0.026028695 0.23795837
-0.071403064 -0.026411522 0.24145824
-0.070734508 -0.02680238 0.24503152
-0.069520928 -0.0270011 0.24684823
-0.066973954 -0.026678858 0.24390227
-0.064422689 -0.026337899 0.24078515
-0.06253054 -0.026255263 0.24002969
-0.062273219 -0.026873529 0.24568199
-0.061741907 -0.02740551 0.25054541
-0.061347272 -0.028031237 0.25626591
-0.060090408 -0.02828897 0.25862214
-0.05874626 -0.028520433 0.26073822
-0.056873363 -0.028501853 0.26056835
-0.055357605 -0.028666979 0.26207799
-0.053734932 -0.028786218 0.26316807
-0.052375115 -0.029059816 0.26566935
-0.050445348 -0.029025735 0.26535776
-0.048422083 -0.028933171 0.26451153
-0.046517387 -0.02890688 0.26427117
-0.045243844 -0.029286951 0.26774585
-0.044310864 -0.029930107 0.27362567
-0.043239176 -0.030533781 0.27914459
-0.041516222 -0.030713154 0.28078443
-0.039549243 -0.03072091 0.28085533
-0.037587374 -0.030733658 0.28097188
-0.035978325 -0.03105234 0.2838853
-0.034277026 -0.031324208 0.28637078
-0.032480039 -0.031537149 0.2883175
-0.030494811 -0.031583522 0.28874147
-0.02865389 -0.031796657 0.29068998
-0.027012412 -0.032280922 0.29511717
-0.025545288 -0.033071619 0.30234587
-0.023852145 -0.033686869 0.30797058
-0.021937057 -0.034080368 0.31156802
-0.01984903 -0.034262784 0.3132357
-0.017676929 -0.034327544 0.31382775
-0.01550826 -0.034418419 0.31465852
-0.013408533 -0.034718096 0.31739825
-0.011347514 -0.035257909 0.32233328
-0.0092160795 -0.035794154 0.32723573
-0.0069941171 -0.03621909 0.33112055
-0.0046525323 -0.036139764 0.33039534
-0.0023191296 -0.036028892 0.32938173
0 -0.035794742 0.32724109
0.0028498941 -0.044274598 0.40476525
0.0086923214 -0.067519888 0.61727726
0.012708976 -0.065813527 0.60167748
0.0065755975 -0.025538836 0.23347999
0.0078351516 -0.024344636 0.22256245
0.009014817 -0.02334165 0.213393
0.0099853585 -0.022161111 0.20260032
0.010904889 -0.021176644 0.19360018
0.01192979 -0.020592835 0.18826289
0.013257439 -0.020596126 0.188293
0.014698553 -0.020759065 0.18978259
0.016076971 -0.020813679 0.19028188
0.017269798 -0.020638103 0.18867674
0.018354867 -0.020368032 0.18620771
0.019854024 -0.020562842 0.18798871
0.021719331 -0.021088824 0.1927973
0.023796249 -0.021746304 0.19880809
0.025553396 -0.022054743 0.20162788
0.026733091 -0.021858556 0.1998343
0.027697992 -0.021515142 0.19669476
0.028940462 -0.021409772 0.19573146
0.03050979 -0.021544797 0.19696589
0.032215957 -0.021760512 0.19893797
0.034019239 -0.022021111 0.20132042
0.035734583 -0.022206219 0.2030127
0.037567999 -0.022447636 0.20521976
0.039280143 -0.022601392 0.20662543
0.040637434 -0.022547279 0.20613071
0.042302012 -0.022661515 0.20717509
0.044275869 -0.022928292 0.20961401
0.046938155 -0.023522865 0.21504968
0.050009474 -0.024278855 0.22196107
0.053426635 -0.025151841 0.22994202
0.056515325 -0.025823386 0.23608141
0.053444706 -0.023722613 0.21687582
0.143595 -0.061967313 0.56651479
0.15413983 -0.064720079 0.591681
0.12997919 -0.053139336 0.48580804
0.099513009 -0.039640684 0.36240131
0.14297876 -0.055531245 0.50767523
0.2308117 -0.087458059 0.79955512
0.14392547 -0.053237081 0.48670167
0.078207396 -0.028255649 0.25831753
0.15130687 -0.053423442 0.48840541
0.083720036 -0.028902993 0.26423565
0.060009237 -0.020266848 0.18528266
0.084635116 -0.027975548 0.25575683
0.11371799 -0.036805592 0.33648244
0.25526071 -0.080930792 0.73988181
0.20309126 -0.063102581 0.57689357
0.046622623 -0.014202096 0.12983775
0.12052745 -0.036008786 0.32919794
0.17607462 -0.051611535 0.47184068
0.050048456 -0.014398685 0.13163501
0.094007425 -0.026553717 0.24275821
0.1727151 -0.047914632 0.438043
0.1736955 -0.047341239 0.43280095
0.46164241 -0.1236527 1.1304522
0.0026722588 -0.00070364302 0.0064328141
1.6890225 -0.43733081 3.9981461
0.97239625 -0.24765058 2.26406
1.4057162 -0.35223445 3.2201819
1.6373074 -0.4037528 3.6911709
0.20578106 -0.049951818 0.45666727
0.42942449 -0.10263591 0.93831342
0.15847629 -0.037303213 0.34103179
0.49599829 -0.11500885 1.0514288
1.2842561 -0.29340574 2.6823609
1.6417673 -0.36964801 3.3793795
1.2777461 -0.28357792 2.5925136
1.9020922 -0.41619718 3.804939
1.4270176 -0.30790922 2.814954
1.3086194 -0.27849433 2.5460386
1.0125691 -0.21257825 1.9434233
0.36571813 -0.07575497 0.69256365
0.20545426 -0.041997891 0.38395122
1.8306155 -0.36934507 3.3766098
2.1454713 -0.42732075 3.9066327
1.6400399 -0.32251745 2.9485047
1.729069 -0.3357749 3.0697062
1.9399079 -0.37206769 3.4015007
1.729858 -0.32773477 2.996202
-0.11043369 -0.019572662 0.19127676
-0.10472969 -0.018790873 0.18363662
-0.11316084 -0.020557409 0.20090033
-0.11055836 -0.020338863 0.19876456
-0.1102953 -0.020550605 0.20083386
-0.11052962 -0.020861723 0.20387429
-0.1095407 -0.02094711 0.20470876
-0.10771961 -0.020873519 0.20398958
-0.10632122 -0.02088096 0.20406228
-0.10640094 -0.02118287 0.20701276
-0.10614519 -0.021425454 0.20938343
-0.10586681 -0.021670237 0.21177562
-0.10461579 -0.02172008 0.2122627
-0.1030187 -0.021698471 0.21205156
-0.10178259 -0.02175338 0.21258816
-0.10061049 -0.021823814 0.21327648
-0.10032556 -0.022091737 0.21589479
-0.099230707 -0.022186812 0.21682392
-0.09910199 -0.022504251 0.21992615
-0.098546661 -0.022733357 0.22216509
-0.097775362 -0.022919225 0.22398153
-0.095561065 -0.022767395 0.22249775
-0.093088917 -0.022548048 0.22035415
-0.090812474 -0.022369469 0.21860896
-0.090230018 -0.022609204 0.2209518
-0.089665219 -0.02286185 0.22342081
-0.088491946 -0.022965604 0.22443478
-0.086538292 -0.022866927 0.22347045
-0.084750637 -0.022809271 0.22290699
-0.082957052 -0.022747811 0.22230637
-0.081924818 -0.022896776 0.22376214
-0.080801465 -0.023025617 0.22502126
-0.080331914 -0.023349646 0.22818789
-0.078989625 -0.023428053 0.22895414
-0.07735119 -0.023420056 0.22887599
-0.074717663 -0.023104025 0.22578751
-0.073432237 -0.023200169 0.22672711
-0.072660841 -0.023466595 0.22933078
-0.072462164 -0.023934305 0.23390155
-0.071674854 -0.02422482 0.23674065
-0.071440257 -0.024720423 0.241584
-0.070914686 -0.025137061 0.24565569
-0.069561459 -0.025273822 0.24699217
-0.067041591 -0.024982844 0.24414857
-0.064057037 -0.024498833 0.23941849
-0.062364087 -0.024495991 0.23939072
-0.061633591 -0.024881532 0.2431585
-0.061257325 -0.025436196 0.24857903
-0.06076286 -0.025972962 0.25382465
-0.059527688 -0.026216052 0.25620025
-0.058090962 -0.026382795 0.25782979
-0.056246467 -0.026369127 0.25769621
-0.054794442 -0.026544677 0.25941181
-0.053324077 -0.026723143 0.26115587
-0.052341875 -0.027167736 0.26550072
-0.050548065 -0.027208397 0.26589811
-0.048683282 -0.027212517 0.26593837
-0.046912391 -0.027271545 0.26651523
-0.045601044 -0.027613774 0.2698597
-0.044349309 -0.028023424 0.27386308
-0.0429352 -0.028363055 0.27718219
-0.041017625 -0.028386604 0.2774123
-0.039084896 -0.028401492 0.27755782
-0.037432149 -0.028632112 0.27981159
-0.036141764 -0.029180923 0.28517494
-0.034494404 -0.029489128 0.28818688
-0.032618921 -0.029628642 0.28955033
-0.030431632 -0.029484665 0.28814328
-0.02850436 -0.029590033 0.28917301
-0.026775949 -0.029933929 0.29253379
-0.0251859 -0.030502709 0.29809225
-0.023417372 -0.0309391 0.30235696
-0.021460086 -0.03118844 0.30479366
-0.019469082 -0.031438742 0.3072398
-0.017326983 -0.031477131 0.30761495
-0.01534723 -0.031863552 0.31139129
-0.013332659 -0.032294437 0.31560218
-0.011391067 -0.033109803 0.32357046
-0.0092420997 -0.033579398 0.32815963
-0.0070266495 -0.034039974 0.3326607
-0.0046479981 -0.033775214 0.33007333
-0.0023105948 -0.033580408 0.32816952
0 -0.032749034 0.32004479
0.0019394276 -0.02818615 0.27545336
0.0014990125 -0.010892747 0.10645099
0.0049289055 -0.023877643 0.23334782
0.0062591275 -0.022741338 0.22224312
0.0074348329 -0.02161043 0.21119113
0.008548297 -0.02070573 0.20234981
0.0095309513 -0.019787932 0.1933805
0.010532244 -0.019133441 0.1869844
0.011608062 -0.018744741 0.18318576
0.012905205 -0.018755432 0.18329026
0.014331612 -0.018934967 0.18504477
0.015720826 -0.019039532 0.18606666
0.01693346 -0.018930607 0.18500218
0.018056829 -0.018744577 0.18318416
0.019553654 -0.018945187 0.18514465
0.021441529 -0.019475916 0.1903313
0.023623837 -0.020195924 0.19736767
0.025483461 -0.020575391 0.20107608
0.02667295 -0.020402325 0.19938475
0.02748174 -0.019969925 0.19515908
0.028598048 -0.019791527 0.19341564
0.030090062 -0.019877538 0.1942562
0.031998038 -0.020218907 0.19759227
0.034005512 -0.020592082 0.20123918
0.035865977 -0.020849941 0.20375916
0.037613329 -0.021024741 0.20546739
0.039136387 -0.021065857 0.20586923
0.040415917 -0.020977639 0.20500709
0.042114858 -0.021105688 0.20625849
0.044493038 -0.021554254 0.21064216
0.047318004 -0.022183338 0.21678998
0.050571647 -0.022967795 0.22445619
0.053454943 -0.023541609 0.23006387
0.057144359 -0.024426242 0.23870908
0.063087627 -0.026196206 0.2560063
0.15630624 -0.063100964 0.61666358
0.10738728 -0.042180654 0.41221672
0.13222784 -0.050570995 0.49421257
0.041844532 -0.015593238 0.15238725
0.15008336 -0.054529905 0.53290164
0.12025495 -0.04262666 0.41657537
0.05990538 -0.020729018 0.20257741
0.14664915 -0.049564797 0.48437932
0.14887592 -0.049173824 0.48055848
0.064403683 -0.020799857 0.20326969
0.22441822 -0.070902653 0.6929068
0.11267921 -0.034842409 0.34050259
0.1925098 -0.058287278 0.56962109
0.23804259 -0.070602618 0.68997455
0.27297127 -0.079343095 0.77539223
0.18443047 -0.052556291 0.51361418
0.22576919 -0.063099153 0.61664581
0.33311376 -0.09134376 0.89267045
0.24043044 -0.064707987 0.63236845
0.088809408 -0.023467049 0.22933523
0.14368425 -0.037289225 0.36441448
0.22096486 -0.056339186 0.55058306
0.2686215 -0.067309283 0.65778995
1.7317472 -0.42657426 4.1687603
0.12813194 -0.031036189 0.30330577
0.52109975 -0.12415186 1.2132925
1.8200171 -0.42662469 4.1692533
0.042393323 -0.0097795557 0.095572151
0.30528337 -0.069324277 0.67748183
1.7093441 -0.38218912 3.7349999
1.6479825 -0.36288655 3.5463626
1.3775411 -0.29880783 2.9201438
1.6690778 -0.35672194 3.4861183
0.65741593 -0.13846923 1.3532113
2.1575923 -0.44795412 4.3776984
1.9864498 -0.4066132 3.9736879
1.9692563 -0.39749524 3.8845813
2.1634803 -0.43071726 4.2092485
2.1124346 -0.41487163 4.0543947
1.6560562 -0.32090461 3.1360881
1.012817 -0.19367769 1.8927441
0.12421527 -0.023444796 0.22911777
0.06262321 -0.011668174 0.11402897
0.28293917 -0.052050889 0.50867504
0.20454358 -0.037158489 0.36313686
1.8140945 -0.32548958 3.1808956
1.0965412 -0.19434495 1.8992649
-0.1233578 -0.020355448 0.21366197
-0.12776795 -0.021343462 0.22403269
-0.11449045 -0.019364541 0.20326085
-0.11262064 -0.019289406 0.20247218
-0.11198405 -0.019426273 0.20390883
-0.11141066 -0.019577803 0.20549937
-0.10993297 -0.019572319 0.2054418
-0.10764635 -0.019420749 0.20385085
-0.10569867 -0.019327058 0.2028674
-0.10592186 -0.019633183 0.20608066
-0.1061278 -0.019944567 0.20934913
-0.10584069 -0.020170761 0.21172336
-0.10408743 -0.020120014 0.21119069
-0.10214363 -0.020030424 0.21025033
-0.10095824 -0.020089114 0.21086636
-0.10037371 -0.020270905 0.21277454
-0.10045203 -0.020594098 0.21616694
-0.09941791 -0.020695657 0.21723297
-0.099261902 -0.020986045 0.22028103
-0.098766036 -0.021212656 0.22265966
-0.098440386 -0.021483725 0.22550495
-0.096619159 -0.021431934 0.22496134
-0.094309293 -0.021268222 0.22324292
-0.091873921 -0.021070177 0.22116414
-0.090438627 -0.021098614 0.22146262
-0.089444846 -0.021232858 0.22287171
-0.087959886 -0.021253213 0.22308539
-0.085875206 -0.021126769 0.22175816
-0.084330447 -0.021130931 0.22180183
-0.082334459 -0.021020049 0.22063798
-0.080961555 -0.021067036 0.22113118
-0.079459958 -0.021081723 0.22128533
-0.079420455 -0.021492666 0.22559881
-0.07888785 -0.021784218 0.22865911
-0.078069717 -0.022007428 0.23100205
-0.075794786 -0.021820737 0.22904243
-0.074095756 -0.021795332 0.22877575
-0.072947673 -0.021934455 0.2302361
-0.072382152 -0.022259057 0.23364326
-0.071785569 -0.022588983 0.23710635
-0.071463071 -0.023022916 0.24166116
-0.071109228 -0.023467673 0.24632958
-0.069770902 -0.023601647 0.24773584
-0.067544356 -0.023434324 0.24597952
-0.064716749 -0.023044171 0.24188425
-0.062468112 -0.022844654 0.23979002
-0.061529987 -0.023126626 0.24274975
-0.06101542 -0.023588456 0.24759738
-0.0601523 -0.023938738 0.25127414
-0.058814071 -0.024115443 0.25312895
-0.057207104 -0.02418956 0.25390688
-0.055502947 -0.024226032 0.25428975
-0.054215651 -0.024452955 0.25667164
-0.052754987 -0.02461464 0.25836876
-0.051726673 -0.024996804 0.26238015
-0.050245333 -0.025180243 0.26430565
-0.04877669 -0.025384404 0.26644862
-0.047202084 -0.025547542 0.26816103
-0.046027619 -0.025949873 0.27238411
-0.044472821 -0.026163436 0.27462578
-0.042550784 -0.026170548 0.27470043
-0.040352989 -0.02600066 0.27291718
-0.038413301 -0.025988404 0.27278852
-0.037049785 -0.026385177 0.27695331
-0.035939205 -0.027016178 0.28357661
-0.034458533 -0.027426843 0.28788719
-0.032638852 -0.027602145 0.28972727
-0.030470848 -0.027486615 0.28851458
-0.028511649 -0.027556388 0.28924695
-0.026634837 -0.027722644 0.29099208
-0.024825878 -0.02799312 0.29383117
-0.022939622 -0.028217696 0.29618841
-0.020856818 -0.028221233 0.29622555
-0.018946724 -0.028485222 0.29899651
-0.016954204 -0.028675789 0.30099684
-0.015156833 -0.029298028 0.30752817
-0.013276855 -0.029941386 0.31428123
-0.011376322 -0.03078647 0.32315165
-0.0092141451 -0.031169012 0.32716703
-0.0069612353 -0.03139735 0.32956383
-0.0046134936 -0.031212451 0.32762301
-0.0022937574 -0.031036692 0.32577816
0 -0.049453009 0.51908588
0.0021344433 -0.028881025 0.30315107
0.004173663 -0.02823679 0.29638883
0.0047783987 -0.021552073 0.2262224
0.0060170912 -0.020354224 0.21364911
0.0070857424 -0.019175353 0.20127501
0.0081327073 -0.018340528 0.19251224
0.0092072152 -0.017797468 0.18681198
0.010338061 -0.01748546 0.18353699
0.011465542 -0.017237728 0.18093665
0.012687856 -0.017167861 0.18020329
0.014031843 -0.017260365 0.18117426
0.015392208 -0.017355919 0.18217725
0.01665882 -0.017339192 0.18200167
0.017846143 -0.017248221 0.18104677
0.019293165 -0.017403644 0.18267819
0.021059887 -0.017810004 0.18694358
0.023358997 -0.018592305 0.19515504
0.025239695 -0.018973155 0.19915263
0.026634345 -0.018967774 0.19909614
0.027518753 -0.018617729 0.19542189
0.028670041 -0.018472981 0.19390254
0.030108448 -0.01851798 0.19437489
0.032079149 -0.018872218 0.19809315
0.034145046 -0.019250607 0.20206495
0.036099058 -0.019538166 0.20508331
0.037716974 -0.019628696 0.20603356
0.038994715 -0.019542042 0.20512399
0.040213417 -0.019433048 0.20397992
0.042184841 -0.019682778 0.20660123
0.044883132 -0.020243697 0.21248896
0.047825728 -0.020875065 0.21911614
0.050729066 -0.021450374 0.22515488
0.05318135 -0.021805868 0.22888637
0.080625825 -0.032086562 0.33679819
0.11223211 -0.043388743 0.45543206
0.089189857 -0.033522848 0.3518742
0.13914271 -0.050884634 0.53411305
0.13811901 -0.049181055 0.5162313
0.087204657 -0.030255409 0.31757736
0.1723558 -0.058303401 0.61198449
0.1328577 -0.043846082 0.46023256
0.15755214 -0.050757822 0.53278196
0.17021155 -0.053560983 0.56220543
0.24272044 -0.074641719 0.78348041
0.21848711 -0.065696351 0.68958497
0.078797169 -0.023178257 0.24329168
0.15892281 -0.045752656 0.48024496
0.11145014 -0.031417187 0.32977206
0.20542407 -0.056726135 0.59542865
0.16166715 -0.043750167 0.45922574
0.20696017 -0.054909132 0.57635635
0.19119753 -0.04975158 0.52221984
0.18597779 -0.04748027 0.49837896
0.14972317 -0.037516579 0.39379457
0.18835784 -0.046339247 0.48640215
0.26588187 -0.064243421 0.67433423
0.44783375 -0.10630897 1.1158773
0.069185309 -0.016140383 0.16941832
1.84571 -0.42329136 4.4430985
1.6837457 -0.37971103 3.9856553
1.5306469 -0.33952609 3.5638521
1.3753508 -0.30015787 3.1506219
1.7080545 -0.36685053 3.8506646
0.045524895 -0.0096249161 0.1010284
1.9960388 -0.415512 4.3614416
0.10986541 -0.022523973 0.23642398
1.7285366 -0.34908545 3.6641922
1.0031391 -0.19960904 2.095206
1.1212991 -0.21988741 2.308059
0.5406087 -0.10449921 1.0968809
0.44441625 -0.084695347 0.88900876
0.39040217 -0.073368169 0.77011257
0.11919383 -0.022093212 0.23190248
1.0137104 -0.18535748 1.9456139
2.1098278 -0.38063937 3.9953997
2.1191483 -0.37729037 3.9602463
0.31950366 -0.056145258 0.58933145
0.16069011 -0.027875489 0.29259643
2.2625294 -0.38752088 4.0676312
0.31961545 -0.054058716 0.5674299
0.57677263 -0.096349083 1.0113329
0.26250246 -0.04331591 0.4546676
-0.12285154 -0.018770291 0.21278511
-0.11441824 -0.017697603 0.20062484
-0.11649731 -0.018244421 0.20682374
-0.11488184 -0.018219166 0.20653741
-0.1135463 -0.018238228 0.20675351
-0.11236377 -0.018282678 0.2072574
-0.11045808 -0.018209083 0.20642313
-0.10840683 -0.018109215 0.205291
-0.10642239 -0.018017953 0.20425643
-0.10620383 -0.018227266 0.20662926
-0.1056385 -0.018382048 0.20838392
-0.10520442 -0.018564353 0.21045057
-0.10362354 -0.018546613 0.21024945
-0.10188736 -0.018500157 0.20972282
-0.10076293 -0.018565049 0.21045846
-0.10050631 -0.018794153 0.21305563
-0.10047046 -0.019072106 0.2162066
-0.099690035 -0.019215098 0.21782759
-0.09913934 -0.019407529 0.22000906
-0.098393463 -0.019567253 0.22181973
-0.097900815 -0.019783303 0.22426893
-0.09610182 -0.019738128 0.22375682
-0.094098672 -0.01964882 0.22274438
-0.091338806 -0.019395793 0.21987599
-0.090031177 -0.019447738 0.22046487
-0.088613868 -0.019477403 0.22080114
-0.087433547 -0.019561144 0.22175045
-0.085650168 -0.01951056 0.22117703
-0.084439218 -0.019590911 0.22208792
-0.082431041 -0.019485839 0.22089678
-0.081148006 -0.019551437 0.22164042
-0.079515599 -0.019533785 0.2214403
-0.079519354 -0.019925401 0.22587977
-0.079321891 -0.02028155 0.22991718
-0.079042375 -0.020631127 0.23388006
-0.077043802 -0.020537332 0.2328168
-0.075165294 -0.020472163 0.23207803
-0.073630035 -0.02049966 0.23238973
-0.072593436 -0.020670401 0.2343253
-0.071697138 -0.020889958 0.23681426
-0.071072564 -0.021201029 0.24034064
-0.070480689 -0.021537263 0.24415228
-0.069533661 -0.02177907 0.24689347
-0.068019427 -0.021851065 0.2477096
-0.065594263 -0.021626512 0.24516405
-0.064088218 -0.021701045 0.24600896
-0.062445763 -0.02173225 0.24636272
-0.061258871 -0.02192831 0.2485853
-0.059699539 -0.021998663 0.24938282
-0.058090068 -0.022054244 0.2500129
-0.05633457 -0.022056127 0.25003424
-0.054898165 -0.02218709 0.25151891
-0.053673424 -0.022415182 0.25410461
-0.052487068 -0.022675585 0.25705662
-0.051639739 -0.02310629 0.2619392
-0.050427943 -0.023399776 0.26526624
-0.049087211 -0.023653708 0.26814488
-0.047686864 -0.023898076 0.27091512
-0.046349559 -0.024195721 0.27428928
-0.04468146 -0.024339056 0.27591416
-0.04256352 -0.024239244 0.27478269
-0.040360209 -0.024078991 0.272966
-0.038460508 -0.024092905 0.27312374
-0.037159894 -0.024503328 0.27777639
-0.035970435 -0.025036717 0.28382304
-0.034400407 -0.025352387 0.28740156
-0.032614268 -0.025538292 0.28950906
-0.030587338 -0.025547866 0.28961757
-0.028584899 -0.025580727 0.28999007
-0.0266272 -0.025661753 0.29090863
-0.024664953 -0.02575154 0.29192647
-0.022651194 -0.025798982 0.29246429
-0.020684956 -0.025915453 0.29378462
-0.01872075 -0.026060631 0.29543042
-0.0168222 -0.026344927 0.29865327
-0.015160297 -0.027134003 0.30759847
-0.013345245 -0.027866313 0.31590012
-0.011353708 -0.028449321 0.32250926
-0.0091054095 -0.028519619 0.32330617
-0.0068020523 -0.02840684 0.32202768
-0.0044817119 -0.028074892 0.31826463
-0.001325861 -0.016611245 0.18830959
0 -0.032448739 0.36784771
0.0024168568 -0.030279946 0.34326172
0.0032603056 -0.02042361 0.2315276
0.0046376796 -0.019367952 0.21956038
0.0057629715 -0.018050561 0.20462607
0.0067904298 -0.01701498 0.19288646
0.007833695 -0.016357601 0.18543421
0.0089838011 -0.016079269 0.18227898
0.010211086 -0.015991388 0.18128273
0.0114373 -0.015921544 0.18049097
0.012634224 -0.015828975 0.17944156
0.01388992 -0.015820174 0.17934179
0.015174767 -0.015843274 0.17960368
0.016458942 -0.015862174 0.17981794
0.017728183 -0.015865013 0.1798501
0.019168966 -0.016010748 0.18150221
0.020841828 -0.016319994 0.18500791
0.022998163 -0.016949169 0.1921404
0.024950245 -0.01736627 0.19686875
0.026477652 -0.01745943 0.19792485
0.027485149 -0.017217586 0.19518326
0.028779682 -0.017170023 0.19464405
0.030207645 -0.01720277 0.1950153
0.032123588 -0.017498484 0.19836758
0.034032062 -0.017765654 0.20139629
0.035813332 -0.017947704 0.20346007
0.037297409 -0.017972542 0.20374164
0.038494784 -0.017862504 0.20249422
0.039826915 -0.017820621 0.20201941
0.04199848 -0.018144282 0.20568852
0.044723019 -0.018677298 0.21173094
0.047380485 -0.019148819 0.21707624
0.049646687 -0.019437686 0.22035088
0.051857095 -0.019687857 0.2231869
0.077159956 -0.028432647 0.32232022
0.12981358 -0.046468247 0.52677673
0.10243585 -0.035649519 0.40413269
0.20274901 -0.068653271 0.77827215
0.20695098 -0.068232 0.77349657
0.17596896 -0.056529574 0.64083463
0.17758021 -0.055621002 0.63053483
0.16747324 -0.051175933 0.58014429
0.12095536 -0.036081124 0.40902543
0.12850499 -0.037441712 0.42444947
0.21045572 -0.059925586 0.67933273
1.4661585 -0.40819961 4.6274619
0.29247046 -0.079657808 0.90302265
0.087529473 -0.023332467 0.26450321
0.18708916 -0.048832797 0.55358189
0.18080685 -0.046229899 0.52407473
0.25335532 -0.063483991 0.71967185
0.15237115 -0.037431464 0.42433327
0.28886867 -0.069598727 0.78899014
0.098440893 -0.0232704 0.26379961
0.1728286 -0.040098306 0.45456535
0.28813305 -0.065634869 0.74405473
0.13595563 -0.03041679 0.34481302
