# .PCD v0.7 - Point Cloud Data file format
VERSION 0.7
FIELDS x y z
SIZE 4 4 4
TYPE F F F
COUNT 1 1 1
WIDTH 1349
HEIGHT 1
VIEWPOINT 0 0 0 1 0 0 0
POINTS 1349
DATA ascii
-0.059820499 -0.032789312 0.26550612
-0.0583902 -0.033037752 0.26751783
-0.057173569 -0.033427682 0.27067524
-0.056069992 -0.033912886 0.27460408
-0.054612033 -0.034210745 0.27701595
-0.05291805 -0.034377344 0.27836496
-0.050983176 -0.034394246 0.27850181
-0.049184442 -0.034508012 0.27942306
-0.047191128 -0.034489062 0.27926958
-0.045078721 -0.034377635 0.27836731
-0.043492824 -0.034675855 0.2807821
-0.042507462 -0.035504069 0.2874884
-0.041607566 -0.03649006 0.29547232
-0.040377483 -0.037275016 0.30182841
-0.038468506 -0.037485648 0.30353397
-0.036163628 -0.037312582 0.30213255
-0.033887241 -0.037149113 0.30080891
-0.031846333 -0.037239209 0.30153844
-0.029957956 -0.037533268 0.30391955
-0.028191421 -0.038036965 0.30799815
-0.026343802 -0.038506091 0.31179684
-0.02438223 -0.03887881 0.31481487
-0.022365239 -0.039228868 0.31764939
-0.020251391 -0.039467949 0.31958532
-0.018114191 -0.039715603 0.32159063
-0.015806481 -0.039606769 0.32070938
-0.013461633 -0.03935308 0.31865516
-0.011426734 -0.040085226 0.32458359
-0.0092778951 -0.040683817 0.32943061
-0.0071654343 -0.041894164 0.33923116
-0.0060562594 -0.053113718 0.4300797
-0.0018041471 -0.031644937 0.25623971
0 -0.035645455 0.28863329
0.0018301967 -0.032101847 0.25993949
0.0033812211 -0.02965349 0.24011432
0.0048157093 -0.028156018 0.22798878
0.0061066644 -0.026777888 0.21682958
0.00733286 -0.02572383 0.20829453
0.0084511489 -0.024705678 0.2000502
0.0096512139 -0.024183333 0.19582061
0.010949116 -0.024006084 0.19438536
0.012386758 -0.024140561 0.19547428
0.013837783 -0.02427162 0.1965355
0.015386217 -0.024534171 0.19866148
0.016959891 -0.024789859 0.20073186
0.018525494 -0.02499532 0.20239553
0.020091167 -0.025171516 0.20382227
0.021628071 -0.025290579 0.20478635
0.023573374 -0.025842469 0.20925519
0.026027331 -0.026854245 0.21744788
0.028651124 -0.027919099 0.22607037
0.030856654 -0.028485738 0.23065864
0.032870106 -0.028827261 0.23342407
0.034865398 -0.029121086 0.23580325
0.037451528 -0.029859263 0.24178055
0.045028269 -0.03433916 0.27805576
0.045426399 -0.033199329 0.26882619
0.077963665 -0.054699637 0.44292146
0.11678667 -0.078786567 0.63796139
0.081555665 -0.052981298 0.42900744
0.11775845 -0.073767699 0.59732199
0.10354517 -0.06262736 0.50711489
0.11554179 -0.067553848 0.54700631
0.16596407 -0.093904115 0.76037329
0.10148624 -0.055627484 0.45043454
0.13489264 -0.071697921 0.58056223
0.14472447 -0.074661255 0.60455739
0.14706512 -0.073701091 0.59678257
0.11173156 -0.054438431 0.44080636
0.11509344 -0.054560844 0.44179755
0.14792415 -0.068279095 0.55287892
0.27091843 -0.12184457 0.98661661
0.13151269 -0.05766866 0.46696264
0.19946566 -0.0853329 0.69096929
0.14872971 -0.062112737 0.50294781
0.2279267 -0.092973463 0.75283754
0.16205972 -0.064603291 0.52311462
0.2041053 -0.079556204 0.64419341
0.089720249 -0.034210928 0.27701744
0.20491862 -0.076474354 0.61923867
0.28898975 -0.10560232 0.85509759
0.17249382 -0.061746124 0.49997923
0.15931541 -0.05588818 0.45254546
0.25546038 -0.087858863 0.71142292
0.23051694 -0.077755608 0.6296134
0.31172797 -0.10316494 0.83536136
0.25573614 -0.083067387 0.67262471
0.11091141 -0.035370875 0.28640991
0.49110511 -0.15382208 1.2455492
0.27338824 -0.084127344 0.68120754
0.18613303 -0.056289539 0.45579538
0.016291503 -0.0048433002 0.039217837
0.50529855 -0.14771651 1.1961105
0.37626964 -0.10819361 0.8760801
1.0263131 -0.29034904 2.3510542
1.1822253 -0.32914856 2.6652272
0.60892719 -0.16688512 1.3513252
0.61156762 -0.16503018 1.336305
0.90202546 -0.23972157 1.9411064
0.43259227 -0.11324947 0.91701913
0.97107351 -0.25048137 2.0282321
0.5692389 -0.14470306 1.1717094
0.78120142 -0.19574796 1.5850372
1.2213907 -0.30173695 2.4432662
1.0136814 -0.24694556 1.9996015
0.89694816 -0.2155146 1.7450945
0.062977791 -0.01492753 0.12087324
0.090164155 -0.02108652 0.17074467
0.7943415 -0.18332678 1.4844588
0.035810977 -0.0081575112 0.066054121
0.6797744 -0.15286303 1.2377836
1.0201684 -0.22650459 1.8340842
1.1466718 -0.25140932 2.0357461
0.74881434 -0.16215165 1.3129966
0.87583047 -0.18734342 1.5169828
-0.13330142 -0.026884321 0.23088485
-0.1153934 -0.023559935 0.20233473
-0.11790846 -0.024374353 0.20932902
-0.11544959 -0.02416815 0.20755814
-0.1137026 -0.024107598 0.20703809
-0.11407858 -0.024501435 0.21042041
-0.11435921 -0.024884887 0.21371353
-0.11554427 -0.025477998 0.21880722
-0.11480866 -0.025657898 0.22035222
-0.11389808 -0.025803087 0.2215991
-0.11248814 -0.025837613 0.22189561
-0.11029301 -0.025690217 0.22062977
-0.10795536 -0.025504941 0.21903861
-0.10511486 -0.025193769 0.21636625
-0.10349305 -0.025169836 0.2161607
-0.10190073 -0.025152469 0.21601154
-0.1014323 -0.025416194 0.21827643
-0.10072786 -0.025627978 0.22009528
-0.10047988 -0.025964338 0.22298396
-0.099488661 -0.026116271 0.22428876
-0.098462172 -0.026263695 0.22555487
-0.096938789 -0.026281243 0.22570555
-0.095304549 -0.026268816 0.22559883
-0.094188727 -0.026401283 0.22673647
-0.093901776 -0.026774658 0.22994304
-0.093892977 -0.027241837 0.23395523
-0.09379302 -0.027698779 0.23787947
-0.092890844 -0.02793112 0.23987484
-0.091394357 -0.027990054 0.24038099
-0.089311801 -0.027868342 0.23933569
-0.087519608 -0.027834291 0.23904327
-0.085995182 -0.027885733 0.23948506
-0.084583633 -0.027976569 0.24026516
-0.082961679 -0.0280001 0.24046725
-0.080749728 -0.027821334 0.238932
-0.078430608 -0.027597252 0.23700756
-0.077233717 -0.027766889 0.23846442
-0.076952405 -0.028280549 0.24287577
-0.076734141 -0.028841252 0.24769114
-0.075691544 -0.029110996 0.25000772
-0.073479272 -0.028933015 0.2484792
-0.070836112 -0.028572548 0.24538347
-0.068629824 -0.028374681 0.24368419
-0.067328677 -0.028550489 0.24519405
-0.066486701 -0.02893539 0.2484996
-0.065510117 -0.029280925 0.25146708
-0.064235151 -0.029508583 0.25342223
-0.063020393 -0.029777704 0.25573346
-0.06186749 -0.030092737 0.258439
-0.06091626 -0.030527933 0.26217648
-0.059647247 -0.030826099 0.26473716
-0.058325596 -0.031115416 0.26722187
-0.057013568 -0.031429328 0.26991776
-0.055779919 -0.031809587 0.27318344
-0.05458913 -0.03224232 0.27689978
-0.053278837 -0.032633908 0.2802628
-0.051632661 -0.032841977 0.28204972
-0.049720485 -0.03289073 0.28246838
-0.047481935 -0.032718644 0.28099048
-0.045165386 -0.032475516 0.2789025
-0.043360837 -0.032595158 0.27993
-0.042277485 -0.033294152 0.28593305
-0.041416306 -0.034246761 0.29411408
-0.040216587 -0.035004973 0.30062571
-0.038338922 -0.035224557 0.30251151
-0.036146652 -0.03516392 0.30199075
-0.034009952 -0.035153143 0.30189821
-0.031955507 -0.035231616 0.30257216
-0.029957693 -0.035388201 0.30391687
-0.028088624 -0.035732653 0.30687505
-0.026156673 -0.036047854 0.30958202
-0.02414869 -0.03630605 0.31179947
-0.022181654 -0.036683612 0.31504196
-0.020166488 -0.037056625 0.31824547
-0.017991643 -0.037192807 0.319415
-0.015743183 -0.037193976 0.31942505
-0.013401027 -0.036937285 0.31722054
-0.011179891 -0.036978196 0.31757191
-0.0090771569 -0.037529085 0.322303
-0.0088769132 -0.048934918 0.42025724
-0.0086377505 -0.07142476 0.61340195
-0.0020517288 -0.03393111 0.29140326
0 -0.031116925 0.2672348
0.0017557959 -0.029037029 0.24937247
0.003265725 -0.027003977 0.23191246
0.0047222897 -0.026032118 0.22356604
0.0060518696 -0.025021175 0.21488398
0.0073068454 -0.024167851 0.20755556
0.0083533255 -0.023024293 0.19773459
0.0095136762 -0.022476489 0.19302998
0.010743884 -0.022210047 0.19074176
0.012148445 -0.022323193 0.1917135
0.013568765 -0.022439772 0.19271468
0.015129731 -0.022746608 0.19534981
0.016666627 -0.02296913 0.19726086
0.018202966 -0.023156716 0.19887184
0.019816214 -0.023408351 0.20103291
0.021479247 -0.023681322 0.20337722
0.023466334 -0.024255117 0.20830502
0.025896197 -0.025192149 0.21635233
0.028348157 -0.026045367 0.22367984
0.030483967 -0.026533589 0.22787273
0.032527473 -0.026896669 0.23099087
0.034922924 -0.027502326 0.23619233
0.037712239 -0.028349001 0.24346364
0.062562153 -0.044984408 0.38632992
0.073216021 -0.050451379 0.43328071
0.10146531 -0.067120582 0.57643729
0.086644001 -0.055111632 0.47330341
0.079887725 -0.048932161 0.42023358
0.13265648 -0.078351729 0.67289126
0.14392745 -0.082077444 0.70488805
0.075820148 -0.041796651 0.35895318
0.14582293 -0.077793315 0.66809565
0.10238296 -0.052912202 0.45441449
0.15822379 -0.079293206 0.68097681
0.2281096 -0.11095395 0.95288199
0.13840806 -0.065399058 0.56165272
0.09799476 -0.045017198 0.38661155
0.1604294 -0.071706809 0.61582416
0.15171538 -0.066027395 0.56704891
0.17963046 -0.076171666 0.65416878
0.15778965 -0.065237395 0.56026435
0.18409573 -0.074257098 0.63772631
0.21546876 -0.084842443 0.72863412
0.33220139 -0.12776478 1.0972548
0.16869757 -0.063406572 0.54454106
0.095729984 -0.03518144 0.30214122
0.1965771 -0.070672952 0.60694534
0.17372125 -0.061127018 0.52496403
0.18600936 -0.064087257 0.55038685
0.18239117 -0.061558191 0.52866697
0.12057842 -0.039882071 0.34251061
0.30477902 -0.098830968 0.84876877
0.28094515 -0.089350365 0.76734853
0.23245773 -0.07253477 0.62293482
0.15468848 -0.047374252 0.40685412
0.23430377 -0.070452228 0.60504973
0.35289374 -0.10421592 0.89501512
0.13138177 -0.038118728 0.32736689
0.1033235 -0.029461119 0.25301459
0.16952254 -0.047517497 0.40808433
1.483965 -0.40902564 3.512747
0.80433655 -0.21806508 1.8727615
0.1139131 -0.030385058 0.26094949
1.7582093 -0.46153876 3.9637341
0.30690983 -0.079306535 0.68109125
0.95284438 -0.24243021 2.0820115
0.76505274 -0.19170155 1.6463492
1.1766526 -0.29043677 2.4942956
0.67782968 -0.16485032 1.4157487
1.5469276 -0.37076524 3.1841636
1.3899437 -0.32838047 2.8201594
1.8491006 -0.4307054 3.6989348
0.91713792 -0.21065915 1.8091586
0.85950756 -0.19471751 1.6722505
0.8618328 -0.19260584 1.6541154
0.67900884 -0.1497243 1.285845
0.89917809 -0.19566371 1.6803765
2.1240118 -0.45618853 3.9177856
2.0033228 -0.42475107 3.6477985
2.0709836 -0.43353853 3.7232659
1.470057 -0.30389413 2.6098688
2.2618365 -0.46180046 3.9659815
2.2379754 -0.45135635 3.876287
-0.11710082 -0.02218564 0.20282456
-0.12633553 -0.024230722 0.22152103
-0.11988924 -0.023281777 0.21284561
-0.11770943 -0.023147818 0.21162094
-0.11623111 -0.02315014 0.21164219
-0.11688519 -0.02358276 0.21559726
-0.11693246 -0.023902724 0.21852241
-0.11603965 -0.024036489 0.21974532
-0.11383615 -0.023898706 0.21848567
-0.11243881 -0.023928707 0.21875997
-0.11202009 -0.024170704 0.22097234
-0.11103534 -0.024295665 0.22211473
-0.10929228 -0.024255898 0.22175118
-0.10676139 -0.024037594 0.21975543
-0.1043575 -0.023841888 0.21796624
-0.10271367 -0.023816576 0.21773484
-0.10178239 -0.023958223 0.2190298
-0.10106552 -0.024155473 0.22083308
-0.10079327 -0.024466816 0.22367944
-0.10036112 -0.02474861 0.22625564
-0.099694453 -0.024980735 0.22837774
-0.098045684 -0.024970345 0.22828278
-0.095894597 -0.024829546 0.22699556
-0.094135612 -0.024787219 0.22660862
-0.093650147 -0.025084553 0.22932689
-0.09352392 -0.025490228 0.23303562
-0.093345128 -0.02589581 0.23674352
-0.092634544 -0.026165929 0.23921299
-0.09140151 -0.026295748 0.24039981
-0.089567788 -0.026254386 0.24002168
-0.087799691 -0.026231041 0.23980826
-0.086079374 -0.026221337 0.23971951
-0.084970906 -0.026401348 0.24136522
-0.082797885 -0.026251195 0.2399925
-0.080018446 -0.025898507 0.23676817
-0.077809535 -0.0257194 0.23513076
-0.076881535 -0.025965109 0.23737705
-0.076836519 -0.026526568 0.24251001
-0.07668718 -0.027076716 0.24753955
-0.075697333 -0.027348785 0.25002685
-0.073608086 -0.027227145 0.24891478
-0.070949845 -0.026883973 0.24577746
-0.068963699 -0.026784679 0.24486968
-0.067460209 -0.026872557 0.24567309
-0.06639722 -0.027145145 0.24816513
-0.065283813 -0.027411304 0.25059837
-0.063957885 -0.027600534 0.25232837
-0.062452063 -0.027720727 0.25342718
-0.061239038 -0.02798178 0.25581378
-0.060154796 -0.028319281 0.25889927
-0.059194107 -0.028737856 0.26272595
-0.05797926 -0.02905607 0.2656351
-0.056739923 -0.029382814 0.26862225
-0.055421304 -0.029689619 0.27142712
-0.054517791 -0.030248659 0.27653793
-0.053336069 -0.030689025 0.28056383
-0.051850811 -0.030981902 0.28324136
-0.049881674 -0.030997518 0.28338411
-0.047480106 -0.030734513 0.28097969
-0.045060493 -0.030436451 0.27825475
-0.043251015 -0.030542145 0.27922103
-0.042111009 -0.03115317 0.28480712
-0.041010987 -0.031856358 0.29123577
-0.039822437 -0.032561179 0.29767933
-0.038136005 -0.032914601 0.30091038
-0.03623328 -0.033111937 0.3027145
-0.034155183 -0.033163663 0.30318737
-0.031963848 -0.033105005 0.30265111
-0.029795798 -0.033063807 0.30227447
-0.027859429 -0.033293139 0.30437106
-0.025871253 -0.033493619 0.30620387
-0.023780879 -0.033586219 0.30705041
-0.021648573 -0.033632193 0.30747074
-0.019764345 -0.034116603 0.31189927
-0.017857378 -0.034677967 0.31703135
-0.015720529 -0.034889523 0.31896544
-0.013422233 -0.034753568 0.31772253
-0.011124853 -0.034566082 0.31600848
-0.0089132329 -0.034617934 0.31648251
-0.011280244 -0.058414832 0.53403747
-0.003981506 -0.030927394 0.28274304
-0.0018572278 -0.028853005 0.26377866
0 -0.02783205 0.25444493
0.0016751204 -0.026023872 0.23791428
0.0031962197 -0.024827473 0.22697662
0.0045902822 -0.023770811 0.21731645
0.005925688 -0.023014667 0.21040365
0.0071654823 -0.022263901 0.20354004
0.0082808509 -0.021441225 0.19601901
0.0094531393 -0.020979924 0.19180173
0.010639003 -0.020660309 0.18887976
0.011996448 -0.0207079 0.18931484
0.013360403 -0.020756086 0.18975537
0.01484549 -0.020966588 0.19167979
0.016312273 -0.021118309 0.19306687
0.01782733 -0.021304378 0.19476794
0.01946771 -0.021602932 0.19749737
0.021263748 -0.022022897 0.20133676
0.023265079 -0.022589698 0.20651853
0.025655314 -0.023445219 0.21433984
0.027970722 -0.024141101 0.22070169
0.030061485 -0.024580047 0.22471459
0.032077163 -0.024916777 0.22779305
0.034299523 -0.025374336 0.23197612
0.0502025 -0.035451006 0.32409859
0.05483859 -0.037041143 0.33863586
0.059997499 -0.038837191 0.35505563
0.086072624 -0.053487331 0.48898947
0.081348181 -0.048607178 0.44437435
0.1110754 -0.063911647 0.58429015
0.093955241 -0.052130137 0.47658178
0.10834583 -0.058041696 0.53062624
0.14449035 -0.074824437 0.6840567
0.11416727 -0.057214461 0.52306348
0.09591347 -0.04656456 0.42570046
0.09623979 -0.045307137 0.4142049
0.18739453 -0.085625648 0.78280294
0.15551205 -0.069027461 0.63105977
0.16944982 -0.073124766 0.66851801
0.17474295 -0.073370904 0.67076814
0.16426009 -0.067154378 0.61393571
0.16804445 -0.066939957 0.61197555
0.16917326 -0.065704875 0.60068417
0.1100513 -0.04170011 0.38122886
0.17104755 -0.063269362 0.57841831
0.27406195 -0.099016182 0.90522134
0.19826742 -0.070004269 0.63998997
0.21928218 -0.075703636 0.69209439
0.2914401 -0.098427713 0.89984137
0.20574573 -0.068007819 0.62173808
0.17495945 -0.056626804 0.51769102
0.23631737 -0.074924774 0.68497396
0.17070466 -0.053039722 0.4848974
0.20311783 -0.061873369 0.56565595
0.2097429 -0.062662803 0.57287306
0.25472173 -0.074664824 0.6825974
0.22255 -0.064026497 0.58534014
0.20617019 -0.058235664 0.53239954
0.21291992 -0.059068255 0.54001123
0.28728223 -0.078299649 0.71582752
0.97271931 -0.26054662 2.3819575
0.67859745 -0.17868418 1.6335585
0.88113862 -0.22814916 2.0857751
0.36029187 -0.091759391 0.83887857
0.13682607 -0.034284916 0.313438
0.24743192 -0.061015625 0.5578143
1.7247921 -0.41868046 3.8276417
0.97312474 -0.23258464 2.1263249
0.72780877 -0.17131652 1.5662022
0.5742681 -0.13315754 1.2173469
1.4697099 -0.33577517 3.0697088
0.13444988 -0.030271728 0.27674884
0.47797921 -0.10608082 0.96980733
0.51268381 -0.11218044 1.025571
0.21228577 -0.045805145 0.41875777
2.2095613 -0.47022864 4.2989035
0.90951067 -0.19094223 1.7456235
0.97170728 -0.20127976 1.8401308
1.3802392 -0.2821413 2.5793796
0.42396998 -0.085540205 0.78202182
1.6409165 -0.32682687 2.9879022
2.2419906 -0.44089237 4.0307064
0.363848 -0.070657112 0.64595824
2.3479981 -0.45033801 4.1170602
1.0086478 -0.19109599 1.7470293
-0.12335911 -0.021863492 0.21366425
-0.12157167 -0.021812707 0.21316794
-0.12218119 -0.022196095 0.21691462
-0.1203435 -0.022138987 0.21635653
-0.11912678 -0.022196116 0.21691485
-0.11984933 -0.022620754 0.22106469
-0.11970875 -0.022891514 0.22371073
-0.11720835 -0.022712212 0.22195847
-0.11313394 -0.022218943 0.21713793
-0.11183816 -0.022265341 0.21759136
-0.11198716 -0.022604655 0.22090738
-0.11205101 -0.022936104 0.22414647
-0.11046632 -0.022934752 0.22413328
-0.10808507 -0.022765582 0.22248006
-0.10633744 -0.022726862 0.22210164
-0.1046936 -0.022709498 0.22193193
-0.10285076 -0.022647789 0.22132887
-0.1011572 -0.022617554 0.22103339
-0.1002811 -0.022772005 0.22254281
-0.10006887 -0.02308451 0.2255968
-0.099602021 -0.023347408 0.22816601
-0.098132558 -0.023380052 0.22848505
-0.095755748 -0.023194009 0.22666691
-0.093983069 -0.023150468 0.22624141
-0.093494795 -0.023427268 0.22894646
-0.093483754 -0.023835456 0.23293553
-0.092764713 -0.024074482 0.23527145
-0.091737263 -0.024240708 0.23689592
-0.09059599 -0.024382453 0.23828116
-0.089315534 -0.024491385 0.2393457
-0.087827571 -0.024546508 0.23988439
-0.086565271 -0.024668101 0.24107268
-0.084632099 -0.024599558 0.24040283
-0.082325883 -0.024417575 0.23862438
-0.079628363 -0.024109529 0.23561397
-0.077456526 -0.023950929 0.234064
-0.076504722 -0.024170887 0.23621359
-0.076424368 -0.024682067 0.24120916
-0.076053701 -0.02512059 0.24549469
-0.075304583 -0.025451604 0.24872959
-0.073552079 -0.025451178 0.24872541
-0.071183786 -0.025232451 0.2465879
-0.068962157 -0.025056075 0.24486421
-0.067509219 -0.025157105 0.24585156
-0.066323556 -0.025365671 0.2478898
-0.065014489 -0.025537044 0.24956454
-0.063485719 -0.025629237 0.25046554
-0.061817639 -0.025668859 0.25085276
-0.060775742 -0.025978468 0.25387844
-0.059813764 -0.02634204 0.25743151
-0.05903786 -0.026812838 0.26203248
-0.057779282 -0.027087731 0.26471889
-0.056383368 -0.027314417 0.26693422
-0.055009667 -0.027567869 0.26941112
-0.054084681 -0.028072331 0.27434102
-0.05302272 -0.028540423 0.27891552
-0.051527213 -0.02880219 0.28147367
-0.049693514 -0.028888293 0.28231514
-0.047446925 -0.028731549 0.28078333
-0.045323703 -0.028639125 0.27988011
-0.043578397 -0.028787952 0.28133455
-0.04219725 -0.029202973 0.28539041
-0.040890701 -0.029713701 0.29038155
-0.039659027 -0.030335465 0.29645786
-0.038187526 -0.030832676 0.30131692
-0.036447607 -0.031158913 0.30450511
-0.034340415 -0.031192321 0.30483162
-0.032025158 -0.031028602 0.30323163
-0.029846463 -0.030983254 0.30278847
-0.027879693 -0.031167848 0.30459243
-0.025834691 -0.03128846 0.30577114
-0.023697367 -0.031309027 0.30597213
-0.021488652 -0.031229954 0.30519938
-0.019514993 -0.031512879 0.30796427
-0.017673444 -0.03210653 0.31376585
-0.015630158 -0.032450959 0.31713182
-0.013413828 -0.032491043 0.31752357
-0.011119895 -0.032321602 0.31586763
-0.0054733041 -0.019886199 0.19434084
-0.010105481 -0.048955102 0.478421
-0.0051004472 -0.037062988 0.36220357
-0.0017604568 -0.025585128 0.25003445
0 -0.02472985 0.24167614
0.0016020602 -0.023283113 0.22753768
0.0030565113 -0.022210492 0.21705534
0.0044350186 -0.021485053 0.20996587
0.0057251519 -0.020801241 0.20328322
0.0069599426 -0.020230092 0.19770157
0.00812109 -0.019670947 0.19223726
0.0093065305 -0.019321995 0.18882707
0.010493924 -0.019063829 0.18630411
0.011773769 -0.019012323 0.18580076
0.01307962 -0.019008914 0.18576744
0.014502177 -0.019160319 0.18724705
0.015976397 -0.019349057 0.18909153
0.017553711 -0.019624012 0.19177857
0.019229895 -0.019962322 0.19508477
0.021109257 -0.020452382 0.19987394
0.02316683 -0.021043055 0.20564638
0.025585961 -0.021873334 0.21376041
0.027936235 -0.022555765 0.22042958
0.030060755 -0.02299368 0.22470915
0.031708498 -0.023041349 0.22517501
0.033238307 -0.023002857 0.22479884
0.056560591 -0.037364006 0.36514533
0.087260522 -0.055138145 0.53884572
0.090672627 -0.054906934 0.53658617
0.086099714 -0.050052281 0.4891434
0.11849186 -0.066233449 0.64727622
0.091543585 -0.049274966 0.48154697
0.12160337 -0.063117497 0.6168251
0.11432497 -0.05729349 0.55990916
0.11872151 -0.057513572 0.56205994
0.13803792 -0.064714104 0.63242817
0.15979207 -0.072571717 0.70921791
0.10228503 -0.045046426 0.44022289
0.14207476 -0.060729574 0.59348881
0.16901517 -0.070181049 0.68585473
0.15365143 -0.062029216 0.60618979
0.16648488 -0.065393604 0.63906872
0.18026435 -0.068942726 0.67375302
0.11764488 -0.043840006 0.42843297
0.16817757 -0.061104093 0.59714878
0.15636519 -0.055426624 0.54166496
0.10620766 -0.036750965 0.35915425
0.12915573 -0.043652333 0.42659888
0.23289017 -0.076923795 0.75174916
0.091073394 -0.029413126 0.28744414
0.24274848 -0.076693915 0.74950272
0.19421719 -0.06005539 0.58690023
0.24270545 -0.0734853 0.71814603
0.33612362 -0.099693105 0.97426575
0.22303706 -0.064828984 0.63355088
0.31866771 -0.090809256 0.88744694
0.31161544 -0.087091908 0.85111862
0.27329242 -0.074940041 0.73236269
0.10757174 -0.028951205 0.28292996
1.7877661 -0.47240037 4.6166029
1.1361935 -0.29486719 2.8816333
1.5416292 -0.39306763 3.8413117
0.9491806 -0.237839 2.3243167
0.41491988 -0.10220554 0.99881881
0.42415965 -0.10274018 1.0040437
1.2361999 -0.29452425 2.8782821
0.61632329 -0.14447047 1.4118593
0.8882075 -0.20489722 2.0023885
0.81826466 -0.18581297 1.8158848
0.37796658 -0.084508859 0.82587534
1.5166135 -0.33395901 3.2636642
0.26053768 -0.056514248 0.5522939
1.4076552 -0.30084971 2.9400985
1.0769248 -0.22682893 2.2167196
0.60728568 -0.1260832 1.2321668
1.6582379 -0.33943039 3.3171339
0.67959237 -0.13717602 1.3405731
0.59494257 -0.11844435 1.157515
0.37693131 -0.074027434 0.7234441
0.80029643 -0.15507858 1.5155284
0.70285743 -0.13440512 1.3134941
0.58185458 -0.10982113 1.0732434
1.0686327 -0.19911136 1.9458455
2.0772171 -0.38213515 3.7344725
1.503891 -0.27320495 2.6699359
1.0432197 -0.1871772 1.8292171
1.0103199 -0.17906357 1.7499255
-0.12687875 -0.020936446 0.21976043
-0.13103963 -0.021889994 0.22976938
-0.12175717 -0.020593612 0.21616183
-0.12042379 -0.020625914 0.21650089
-0.11987003 -0.020794282 0.2182682
-0.12043978 -0.021164458 0.22215378
-0.12026334 -0.021411525 0.22474711
-0.11714755 -0.021134885 0.22184336
-0.11297131 -0.020656865 0.21682578
-0.11143653 -0.020655354 0.21680993
-0.11193591 -0.021036085 0.22080629
-0.11240185 -0.021421166 0.22484829
-0.11092999 -0.021442672 0.22507404
-0.10898459 -0.021371942 0.22433163
-0.10725056 -0.021341188 0.22400883
-0.10583894 -0.021374632 0.22435987
-0.10353282 -0.021225702 0.22279662
-0.10099847 -0.02102468 0.22068657
-0.099605031 -0.021058589 0.22104248
-0.099393032 -0.021347322 0.22407319
-0.099276759 -0.021666257 0.22742091
-0.097948685 -0.021726849 0.22805694
-0.096071444 -0.021665614 0.22741418
-0.094720311 -0.021722963 0.22801614
-0.094259709 -0.021990042 0.23081954
-0.093506999 -0.02219715 0.23299345
-0.091888823 -0.022202538 0.23305002
-0.090601824 -0.022289598 0.23396385
-0.089776359 -0.022495527 0.23612539
-0.089173235 -0.022765994 0.23896436
-0.088077389 -0.022918651 0.24056673
-0.086591311 -0.022973763 0.24114521
-0.084264942 -0.022803675 0.23935989
-0.081881851 -0.022610988 0.23733734
-0.07962025 -0.022444515 0.23558995
-0.077985629 -0.022451464 0.23566289
-0.07679639 -0.022589725 0.23711413
-0.07629624 -0.022941327 0.24080476
-0.07562419 -0.023256054 0.2441083
-0.075038418 -0.023612566 0.24785045
-0.073645964 -0.023726167 0.24904287
-0.071726404 -0.023671357 0.24846755
-0.069592416 -0.023541272 0.2471021
-0.06822899 -0.023671854 0.24847278
-0.066912375 -0.023825984 0.2500906
-0.065521993 -0.02396146 0.25151265
-0.063991822 -0.024051931 0.25246227
-0.062183067 -0.024039868 0.25233564
-0.061162721 -0.024340855 0.25549498
-0.05998268 -0.024594607 0.2581585
-0.059235204 -0.025047125 0.26290837
-0.057774909 -0.025217703 0.26469886
-0.05623924 -0.025365656 0.26625186
-0.05466339 -0.02550507 0.26771522
-0.053466227 -0.02583744 0.27120394
-0.052352332 -0.026236158 0.27538911
-0.050929792 -0.026504921 0.27821019
-0.049168386 -0.026611777 0.27933183
-0.047435675 -0.026743721 0.28071678
-0.045575686 -0.026812254 0.28143612
-0.043920867 -0.027013207 0.28354546
-0.042393573 -0.027315468 0.28671813
-0.041018646 -0.027751043 0.29129016
-0.03977282 -0.028324399 0.29730844
-0.038330033 -0.028813409 0.30244136
-0.036572717 -0.029109601 0.30555034
-0.034279332 -0.028989473 0.3042894
-0.031911403 -0.028786084 0.30215454
-0.029680831 -0.028686397 0.30110815
-0.027847525 -0.028984861 0.304241
-0.025925927 -0.029233513 0.306851
-0.023776572 -0.029247213 0.3069948
-0.021622816 -0.0292577 0.30710486
-0.019641912 -0.029530393 0.30996719
-0.017611526 -0.029787563 0.31266662
-0.015630683 -0.030213976 0.31714249
-0.013440846 -0.030311214 0.31816313
-0.011154089 -0.030185064 0.31683898
-0.015518826 -0.052496076 0.5510276
-0.0079114288 -0.035683017 0.37454855
-0.0036164364 -0.024466891 0.25681791
-0.0017176967 -0.023242049 0.2439613
0 -0.022065472 0.2316113
0.0015432198 -0.020881213 0.21918067
0.0029761321 -0.020134933 0.2113473
0.0043154899 -0.019464212 0.20430703
0.0056112926 -0.018981516 0.1992404
0.0067962408 -0.018391905 0.19305153
0.0079433601 -0.01791352 0.18803014
0.009076193 -0.017544203 0.18415359
0.01023787 -0.017316001 0.18175825
0.011481565 -0.01726182 0.18118952
0.012768665 -0.017277204 0.18135101
0.014199566 -0.017466679 0.18333983
0.015681848 -0.017682511 0.18560535
0.017226338 -0.017929889 0.18820195
0.018878853 -0.01824633 0.19152348
0.020798068 -0.018761162 0.19692744
0.0229293 -0.019390937 0.20353791
0.02548367 -0.02028341 0.21290581
0.028118059 -0.021136874 0.22186424
0.030383857 -0.021638006 0.22712439
0.031977151 -0.021634044 0.22708279
0.028764868 -0.018534079 0.19454387
0.06365215 -0.039148785 0.41092718
0.066786364 -0.039290532 0.41241497
0.066560723 -0.037526213 0.39389572
0.063049942 -0.034124997 0.35819471
0.080076203 -0.041673321 0.43742603
0.082642108 -0.041415755 0.43472245
0.063898154 -0.030878646 0.32411921
0.10102888 -0.047138475 0.4947913
0.11183584 -0.050441463 0.52946132
0.1190361 -0.051957104 0.54537028
0.076058075 -0.032160539 0.33757466
0.08136037 -0.033360068 0.35016558
0.17042519 -0.067823909 0.71191698
0.085278116 -0.032968376 0.34605414
0.08052893 -0.030267557 0.31770489
0.062730886 -0.022940751 0.24079871
0.15784013 -0.056203298 0.58994061
0.12239788 -0.042465597 0.44574222
0.19302258 -0.065294422 0.68536609
0.31153589 -0.10281397 1.0791919
0.20571662 -0.06627474 0.695656
0.057420652 -0.018068729 0.1896593
0.28025469 -0.086184308 0.90463769
0.14355053 -0.043163855 0.4530715
0.22353703 -0.065753609 0.6901859
0.24055873 -0.069255017 0.72693861
0.16861047 -0.047530375 0.49890488
0.23203287 -0.064073935 0.67255521
0.21494138 -0.058167178 0.61055458
0.35456458 -0.094070435 0.9874149
0.21392304 -0.055664994 0.58429027
0.095308974 -0.024332453 0.25540677
0.187767 -0.047049332 0.4938556
0.37668788 -0.092671663 0.9727326
1.7330874 -0.41875538 4.3954864
0.53947389 -0.12806296 1.3442191
1.4902995 -0.34767506 3.6493881
1.9004948 -0.4358556 4.5749798
1.5771236 -0.35566607 3.7332664
1.1535172 -0.25587168 2.6857696
0.23409034 -0.051088102 0.53624874
1.256892 -0.26995125 2.8335567
1.7847806 -0.37733999 3.9607675
2.0618346 -0.42920861 4.505209
1.3499575 -0.27676052 2.9050303
0.62861365 -0.12695125 1.3325499
0.080525696 -0.016023358 0.16818996
0.95789129 -0.18784302 1.9717035
0.82717252 -0.15989174 1.6783113
0.80569309 -0.15354627 1.6117058
1.8195221 -0.34194225 3.5892138
1.0161003 -0.18833961 1.9769158
0.63227016 -0.11561093 1.2135158
1.010088 -0.18223253 1.9128126
0.35777691 -0.063698128 0.66861045
0.47118482 -0.082799651 0.86911064
2.24353 -0.38919318 4.0851855
0.94412512 -0.16170761 1.6973716
2.4051957 -0.40680698 4.2700691
0.96831316 -0.1617554 1.6978734
0.39898443 -0.065837003 0.69106132
-0.12475814 -0.019061595 0.21608742
-0.11025266 -0.017053293 0.19332078
-0.12101894 -0.018952547 0.21485123
-0.12043261 -0.019099465 0.21651673
-0.11994178 -0.019265492 0.21839885
-0.12042671 -0.019594595 0.22212966
-0.11943564 -0.01968904 0.22320032
-0.11678624 -0.019508984 0.22115916
-0.11333106 -0.019187635 0.21751626
-0.11204269 -0.019229362 0.21798928
-0.1123682 -0.019553076 0.221659
-0.11266637 -0.019881088 0.22537744
-0.11130084 -0.019920701 0.2258265
-0.10988773 -0.019952819 0.22619061
-0.10854848 -0.019999497 0.22671975
-0.10686633 -0.019983441 0.22653773
-0.10447355 -0.019832006 0.224821
-0.10114441 -0.019495426 0.22100547
-0.099380776 -0.019454792 0.22054483
-0.098973431 -0.01968259 0.2231272
-0.099201247 -0.020046089 0.22724792
-0.098165199 -0.020161921 0.22856104
-0.096753411 -0.020203156 0.22902849
-0.095372058 -0.020252254 0.22958507
-0.094551101 -0.020424094 0.2315331
-0.09326902 -0.02050061 0.23240051
-0.091011882 -0.020361712 0.2308259
-0.089865446 -0.020470776 0.23206228
-0.089612678 -0.020791216 0.23569489
-0.089626409 -0.021186749 0.24017875
-0.088705108 -0.021372212 0.24228123
-0.086748317 -0.021310572 0.24158245
-0.084129699 -0.021080628 0.23897573
-0.082192883 -0.021015625 0.23823886
-0.080646932 -0.021049937 0.23862782
-0.079276569 -0.021132514 0.23956394
-0.077924199 -0.021223584 0.24059635
-0.07675083 -0.021368533 0.24223952
-0.075522408 -0.021504402 0.24377976
-0.074702688 -0.021765666 0.24674152
-0.073372819 -0.021887196 0.24811922
-0.07186389 -0.021959936 0.24894381
-0.070487984 -0.02207798 0.25028199
-0.069110751 -0.02220165 0.25168395
-0.0680454 -0.022434656 0.25432539
-0.066571124 -0.022541787 0.25553983
-0.065203667 -0.022692051 0.25724328
-0.063561246 -0.022752471 0.25792822
-0.062407006 -0.022996336 0.26069272
-0.061150834 -0.023216281 0.26318607
-0.059685819 -0.023368208 0.26490834
-0.057780467 -0.023351973 0.26472431
-0.056035031 -0.023401439 0.26528507
-0.054295905 -0.023457045 0.26591545
-0.053055625 -0.023739832 0.2691212
-0.051758841 -0.024017343 0.27226716
-0.050555076 -0.024361029 0.27616328
-0.049348984 -0.024731042 0.28035784
-0.047966711 -0.025039917 0.28385931
-0.046447299 -0.025300952 0.28681847
-0.044751327 -0.025485165 0.28890678
-0.042985667 -0.025645347 0.29072261
-0.041399863 -0.025934214 0.29399732
-0.040127508 -0.026460182 0.29995981
-0.038667664 -0.026914086 0.30510539
-0.036779162 -0.027105479 0.30727509
-0.034315847 -0.026870698 0.30461356
-0.03189756 -0.026642218 0.30202344
-0.029697208 -0.026576135 0.3012743
-0.027927449 -0.026914859 0.30511418
-0.026033917 -0.027180813 0.30812913
-0.024125293 -0.027477935 0.31149736
-0.021966033 -0.02752047 0.31197953
-0.019935435 -0.027751559 0.31459925
-0.017844388 -0.027945759 0.31680074
-0.015717173 -0.028130705 0.31889734
-0.013467327 -0.028121233 0.31878993
-0.016921556 -0.042400841 0.4806675
-0.011643732 -0.036470056 0.41343448
-0.0050959229 -0.021281675 0.24125487
-0.0035800852 -0.022426812 0.25423646
-0.0016875821 -0.02114312 0.23968418
0 -0.019994199 0.22665969
0.0015084089 -0.018898323 0.21423656
0.0029119514 -0.018241405 0.20678955
0.0042515635 -0.017755447 0.20128058
0.0055475198 -0.01737573 0.19697602
0.0067288862 -0.016860768 0.19113827
0.0078275334 -0.016344735 0.18528837
0.0088902581 -0.015911844 0.18038101
0.010000655 -0.015661836 0.17754686
0.011210321 -0.015605574 0.17690904
0.012509323 -0.01567249 0.1776676
0.014008623 -0.015955372 0.18087444
0.015548678 -0.016233658 0.18402918
0.017042868 -0.016424928 0.18619747
0.018601041 -0.016646136 0.18870513
0.020532064 -0.017149266 0.19440876
0.022886086 -0.017920732 0.20315431
0.025591278 -0.018860241 0.21380483
0.028217008 -0.019640053 0.222645
0.030642845 -0.020205969 0.22906037
0.032991271 -0.0206668 0.23428448
0.063399449 -0.037824254 0.42878601
0.0944883 -0.053809572 0.61000001
0.077143349 -0.042021818 0.47637078
0.061342232 -0.032022301 0.36301351
0.089119948 -0.044662096 0.5063017
0.074211642 -0.035760444 0.40539017
0.092603728 -0.042970352 0.48712364
0.0958554 -0.042890664 0.48622027
0.13416371 -0.057961721 0.65706986
0.13130535 -0.054835949 0.62163526
0.1458049 -0.058927037 0.66801298
0.13008246 -0.050929919 0.57735544
0.13184071 -0.050054118 0.5674271
0.13880265 -0.051147338 0.57982016
0.15656418 -0.056043927 0.63532925
0.11219534 -0.039046001 0.4426361
0.24768448 -0.083868958 0.95076138
0.1202108 -0.039633654 0.44929793
0.20284829 -0.065164484 0.73872232
0.22246626 -0.069680035 0.78991193
0.18174841 -0.055538092 0.62959492
0.04839709 -0.014436909 0.16366072
0.28289378 -0.082425036 0.93439263
0.2001456 -0.05698986 0.6460526
0.23857042 -0.066421434 0.75297147
0.29746959 -0.081019387 0.91845787
0.11586207 -0.030885002 0.35012078
0.209254 -0.054618116 0.61916584
0.27350017 -0.069930352 0.79274958
0.29478189 -0.073864378 0.83734667
0.22065829 -0.054206867 0.6145038
0.38385463 -0.092484221 1.0484263
0.29695329 -0.070196666 0.7957685
0.18347125 -0.042567529 0.48255712
0.50448161 -0.11491769 1.3027382
1.0857589 -0.24291234 2.7537203
1.8460941 -0.40577304 4.5999537
1.4032356 -0.30311453 3.4361889
0.621512 -0.13197805 1.496139
0.7852183 -0.16396207 1.8587186
0.24122679 -0.049545009 0.56165576
1.1463143 -0.23164143 2.6259503
0.6744523 -0.13412657 1.5204955
0.59107322 -0.11570856 1.3117038
1.0831883 -0.20878284 2.3668191
2.0327301 -0.38586909 4.3743172
0.23365051 -0.043691415 0.49529779
1.5528024 -0.2860958 3.2432601
1.987494 -0.36087844 4.0910163
0.41909659 -0.075010195 0.85033602
0.16203882 -0.028593341 0.32414192
1.6248373 -0.2827363 3.2051759
1.8405144 -0.31587887 3.580889
0.4941366 -0.083660312 0.94839615
0.54633689 -0.091264836 1.0346031
1.1010218 -0.18150413 2.0575802
0.45188299 -0.073525757 0.83350796
0.24221914 -0.038906131 0.4410505
0.060141526 -0.0095378729 0.10812393
1.0030296 -0.15708256 1.7807307
0.80290985 -0.12418981 1.4078496
2.103435 -0.32138047 3.6432564
-0.11079868 -0.015574451 0.19190894
-0.11251315 -0.0160107 0.19728442
-0.12045736 -0.017355431 0.21385424
-0.11940142 -0.017421054 0.21466284
-0.11924375 -0.017621102 0.21712783
-0.11911284 -0.017830353 0.21970622
-0.1179188 -0.017883869 0.22036566
-0.11557882 -0.0177627 0.21887262
-0.11290613 -0.017586436 0.21670067
-0.11173311 -0.017642133 0.21738696
-0.11170734 -0.017883034 0.22035539
-0.11179354 -0.018148903 0.22363143
-0.11182513 -0.018413374 0.22689025
-0.11071535 -0.018494848 0.22789417
-0.10938124 -0.018540693 0.22845908
-0.10713095 -0.018430291 0.22709869
-0.10433049 -0.01822046 0.22451316
-0.10103238 -0.017915925 0.22076066
-0.099488728 -0.017917851 0.2207844
-0.099135049 -0.018137554 0.22349158
-0.099796556 -0.018553074 0.22861163
-0.098825298 -0.018673699 0.23009796
-0.097315833 -0.01869495 0.23035982
-0.095896907 -0.018734608 0.23084851
-0.094300948 -0.018740453 0.23092052
-0.092679836 -0.018741418 0.23093238
-0.090428174 -0.018612629 0.22934547
-0.089619093 -0.018781483 0.2314261
-0.089716628 -0.019150106 0.23596829
-0.089998677 -0.01957277 0.24117637
-0.088723794 -0.019666577 0.24233226
-0.086418234 -0.019531125 0.24066322
-0.084120855 -0.019392138 0.23895061
-0.082772359 -0.019470688 0.2399185
-0.082009576 -0.019693157 0.24265976
-0.08071772 -0.019795343 0.24391893
-0.079189979 -0.019842869 0.24450451
-0.077441521 -0.019835969 0.2444195
-0.075606562 -0.019806093 0.24405138
-0.074121162 -0.019868534 0.24482079
-0.072944865 -0.020018771 0.24667202
-0.071590677 -0.020126333 0.24799739
-0.070755042 -0.020388694 0.25123021
-0.069953412 -0.020674562 0.2547527
-0.069303147 -0.021021387 0.25902626
-0.067981385 -0.021177776 0.26095331
-0.066866495 -0.021409083 0.26380348
-0.065388151 -0.021533918 0.2653417
-0.064120427 -0.021737495 0.26785016
-0.062036067 -0.021668175 0.26699603
-0.059870552 -0.02156529 0.26572827
-0.057576515 -0.02140798 0.26378989
-0.055786368 -0.021433784 0.26410785
-0.054222919 -0.021551471 0.26555797
-0.05294244 -0.021794051 0.26854706
-0.051804438 -0.022115422 0.27250701
-0.05070243 -0.02247747 0.27696821
-0.049656082 -0.022894146 0.2821025
-0.048329934 -0.023211168 0.28600883
-0.046831567 -0.023469448 0.28919137
-0.045050297 -0.023602989 0.29083684
-0.043477103 -0.023863457 0.29404634
-0.041838404 -0.024112215 0.29711157
-0.040451072 -0.024539653 0.30237848
-0.038937204 -0.02493356 0.3072322
-0.036834445 -0.024974525 0.30773699
-0.034292426 -0.024704169 0.30440563
-0.031802408 -0.024437726 0.30112252
-0.029637773 -0.024401106 0.30067131
-0.028136346 -0.024946887 0.30739644
-0.026039971 -0.025012163 0.30820075
-0.024294037 -0.025456522 0.31367615
-0.022225659 -0.025618088 0.31566697
-0.020189673 -0.025857039 0.31861135
-0.018021537 -0.025965331 0.31994575
-0.01580542 -0.026025556 0.32068783
-0.013558695 -0.026047057 0.32095274
-0.01748433 -0.040306121 0.49665344
-0.00059701601 -0.0017203548 0.021198273
-0.0055084974 -0.0211643 0.26078728
-0.003504659 -0.020197973 0.24888015
-0.0016616883 -0.019153209 0.23600654
0 -0.01817009 0.22389248
0.0014970803 -0.01725588 0.21262757
0.0028896285 -0.016653443 0.20520432
0.0042056153 -0.016158473 0.19910528
0.0054646702 -0.015746934 0.19403428
0.0066397344 -0.015306388 0.18860586
0.0077144676 -0.01481995 0.18261194
0.0087491795 -0.014406594 0.17751858
0.0098559149 -0.014200347 0.17497718
0.011083443 -0.014194633 0.17490678
0.01244472 -0.014344228 0.17675008
0.013998033 -0.014667846 0.18073772
0.015530908 -0.014917898 0.18381886
0.016944552 -0.015023762 0.18512334
0.018416211 -0.01516227 0.18683003
0.020382969 -0.015662756 0.19299705
0.022721753 -0.016368689 0.20169556
0.025392609 -0.01721672 0.21214503
0.02792093 -0.017879255 0.22030883
0.030506991 -0.018507075 0.22804484
0.033185232 -0.01912524 0.23566189
0.067157097 -0.036860794 0.4542
0.08650171 -0.045320429 0.55843991
0.065988846 -0.033070039 0.40749019
0.089291297 -0.042883471 0.52841163
0.098495647 -0.045411833 0.5595662
0.078245848 -0.034688056 0.42742747
0.12548082 -0.05356802 0.66006702
0.087271921 -0.035925973 0.4426811
0.10134641 -0.040281203 0.49634638
0.090239741 -0.03467118 0.42721954
0.10575663 -0.039322205 0.48452964
0.099874221 -0.035974555 0.44327974
0.10361921 -0.036192484 0.44596505
0.18183096 -0.061642602 0.75956225
0.14768389 -0.048635919 0.59929353
0.1653322 -0.052935492 0.652273
0.19009967 -0.059220452 0.72971648
0.11181471 -0.033916213 0.41791677
0.14552781 -0.043010395 0.52997559
0.18957065 -0.054626469 0.67310929
0.21887419 -0.061532244 0.75820243
0.25376487 -0.069642477 0.85813707
0.50483239 -0.13532273 1.6674516
0.17060095 -0.044691075 0.55068499
0.14388792 -0.036855634 0.45413643
0.36604977 -0.091722175 1.1302038
0.21186544 -0.051958222 0.64023107
0.1921155 -0.046133157 0.56845438
0.4186165 -0.098471895 1.2133741
0.28783342 -0.06635341 0.81760907
0.25714636 -0.058116872 0.71611816
0.28663322 -0.063535318 0.78288442
0.37448362 -0.081442103 1.0035325
0.25383508 -0.05418136 0.66762465
0.28473747 -0.059672456 0.73528618
1.6975358 -0.34940001 4.3053193
0.12083674 -0.024435217 0.30109158
1.6622488 -0.33033916 4.0704508
1.8212973 -0.35581222 4.3843307
1.6373099 -0.31453696 3.8757355
0.36012152 -0.06804736 0.8384819
1.3324829 -0.24772052 3.0524211
0.51206595 -0.093686573 1.1544093
0.70045364 -0.12615122 1.5544397
1.1618377 -0.20602699 2.5386717
0.63430417 -0.110776 1.3649858
0.22348092 -0.038446575 0.47374007
0.52791035 -0.089483567 1.1026196
1.3682141 -0.2285583 2.8163035
0.75424504 -0.12419567 1.5303434
0.49093509 -0.079699896 0.9820649
0.12754698 -0.020418776 0.25160086
0.32469583 -0.051267941 0.63172537
0.22228761 -0.034623869 0.42663652
1.9576868 -0.3008666 3.7072887
2.2815824 -0.34603065 4.2638016
1.3547407 -0.20279513 2.4988487
2.3879018 -0.3528693 4.3480682
1.2000077 -0.17508501 2.1574037
0.0128435 -0.0018504844 0.022801735
1.1688145 -0.16632313 2.0494394
0.76013356 -0.10684841 1.31659
-0.12250052 -0.015721992 0.21217713
-0.13180989 -0.017125627 0.23111996
-0.12193789 -0.016041026 0.21648268
-0.12037901 -0.01603641 0.21642037
-0.11970091 -0.016150516 0.21796028
-0.11907355 -0.016274517 0.21963376
-0.11775293 -0.016305782 0.22005571
-0.11497859 -0.016133893 0.21773598
-0.11248282 -0.01599698 0.21588823
-0.11096855 -0.015997812 0.21589945
-0.11084359 -0.016201736 0.21865155
-0.11113764 -0.016473517 0.22231938
-0.11197609 -0.016834907 0.22719654
-0.11160884 -0.017022878 0.22973332
-0.11011803 -0.017042488 0.22999796
-0.10705111 -0.016815115 0.22692946
-0.10364207 -0.016526299 0.2230317
-0.1002367 -0.016229192 0.21902208
-0.098938301 -0.016269267 0.2195629
-0.099564679 -0.016632145 0.22446015
-0.099846862 -0.016948305 0.22872691
-0.099059217 -0.017090255 0.23064262
-0.097096354 -0.017030803 0.22984029
-0.095007554 -0.016946875 0.2287076
-0.093148895 -0.016901808 0.22809942
-0.091589227 -0.016910367 0.2282149
-0.089577772 -0.016834324 0.22718869
-0.0895871 -0.017142188 0.23134348
-0.089716919 -0.017484937 0.23596907
-0.089968763 -0.017864851 0.2410962
-0.088548683 -0.017921001 0.241854
-0.086573824 -0.017864874 0.2410965
-0.084646977 -0.017816605 0.24044509
-0.083599359 -0.017955204 0.24231561
-0.082904175 -0.018176852 0.24530683
-0.081901878 -0.018339161 0.24749731
-0.080472201 -0.018410753 0.24846348
-0.078362502 -0.018326489 0.24732628
-0.076089226 -0.018199271 0.2456094
-0.074300706 -0.018184777 0.2454138
-0.072854005 -0.018255243 0.24636477
-0.071570911 -0.018371144 0.24792892
-0.070858411 -0.018642964 0.25159726
-0.070450276 -0.019010849 0.25656211
-0.070017554 -0.019391295 0.26169643
-0.069094121 -0.01965273 0.26522464
-0.068155073 -0.019924121 0.26888722
-0.067014299 -0.020150365 0.27194053
-0.065648548 -0.020320281 0.27423361
-0.063139938 -0.020136023 0.27174696
-0.060377877 -0.019856896 0.26797998
-0.057669915 -0.019578127 0.26421785
-0.05591055 -0.01961354 0.26469576
-0.054417185 -0.01974793 0.26650941
-0.053413346 -0.020075912 0.27093571
-0.052484356 -0.020457359 0.27608356
-0.051496353 -0.020844266 0.2813051
-0.050484076 -0.021251908 0.28680643
-0.048961919 -0.021469932 0.28974882
-0.047596164 -0.021778481 0.29391283
-0.045639262 -0.021832297 0.29463914
-0.043911055 -0.022005845 0.29698128
-0.042245474 -0.022229705 0.30000237
-0.040696688 -0.022541819 0.30421451
-0.03894639 -0.022770798 0.30730471
-0.036692463 -0.022714932 0.30655077
-0.034270409 -0.022541499 0.30421022
-0.031916082 -0.022392459 0.30219883
-0.030212982 -0.022711668 0.30650675
-0.028376563 -0.022972059 0.31002083
-0.026529996 -0.023266949 0.31400058
-0.024341753 -0.023288561 0.31429222
-0.022230268 -0.023395276 0.31573242
-0.020196049 -0.023616055 0.31871197
-0.018053869 -0.023750007 0.32051972
-0.01586381 -0.023850251 0.32187256
-0.01363294 -0.023912324 0.32271025
-0.013893554 -0.029243328 0.3946552
-0.0099996217 -0.026309162 0.35505697
-0.0054113395 -0.018983096 0.25618756
-0.0034271285 -0.018033659 0.24337438
-0.0016272826 -0.017125629 0.23111998
0 -0.016282206 0.21973754
0.001480132 -0.015577005 0.21022044
0.0028431527 -0.01496076 0.20190388
0.004114741 -0.014434599 0.19480304
0.0053254147 -0.014011251 0.18908972
0.0064992425 -0.013679689 0.18461511
0.0075996267 -0.013329826 0.17989351
0.0086810449 -0.01305141 0.17613614
0.0098394947 -0.012943934 0.17468567
0.011116309 -0.01299875 0.17542544
0.012498388 -0.013153383 0.1775123
0.014013864 -0.013407528 0.18094213
0.015537545 -0.01362651 0.18389742
0.017046735 -0.013800072 0.18623973
0.018684128 -0.014045211 0.18954805
0.020798504 -0.01459232 0.19693156
0.0231661 -0.015237594 0.20563991
0.025884233 -0.016023962 0.21625239
0.028157687 -0.016462963 0.22217694
0.030688522 -0.016998313 0.22940181
0.046002042 -0.024206424 0.32667929
0.094425358 -0.04732088 0.63862193
0.084479876 -0.040412344 0.54538739
0.086436056 -0.039550371 0.53375447
0.05986673 -0.02625172 0.35428175
0.064333066 -0.027081814 0.3654843
0.10548285 -0.042696476 0.57621294
0.10979699 -0.042796686 0.57756531
0.094559692 -0.035541154 0.47964782
0.13303041 -0.048276573 0.65151948
0.017412659 -0.0061083976 0.082436271
0.12702993 -0.043124877 0.58199447
0.12139402 -0.039923701 0.53879279
0.17101267 -0.054537829 0.73601866
0.15091088 -0.046711642 0.63039988
0.18569814 -0.055837117 0.75355333
0.21013196 -0.061428953 0.82901824
0.19542632 -0.055585921 0.75016326
0.18642204 -0.051629409 0.69676793
0.17726125 -0.047833554 0.64554071
0.10819183 -0.028465446 0.38415718
0.18407801 -0.047249969 0.63766491
0.015651083 -0.0039217379 0.05292606
0.22910884 -0.056073405 0.75674212
0.15265059 -0.03651147 0.49274284
0.21527867 -0.050346814 0.67945856
0.24570243 -0.056212783 0.75862318
0.29557544 -0.066184141 0.89319223
0.24418485 -0.053537857 0.72252351
0.34269887 -0.073603779 0.9933244
0.19173624 -0.040356886 0.54463887
0.24287835 -0.050118968 0.67638361
0.21425933 -0.043363053 0.58520883
0.25406864 -0.05044971 0.68084717
0.19477643 -0.037959993 0.51229149
0.67094523 -0.1283831 1.7326021
0.23264307 -0.043720543 0.59003335
0.21548025 -0.0397847 0.53691691
0.019227346 -0.0034887902 0.047083188
1.5228229 -0.27163196 3.6658261
1.6930234 -0.29695812 4.007617
1.9580438 -0.33781275 4.5589733
0.76857787 -0.13046069 1.7606405
0.22917615 -0.038283564 0.51665825
1.3137592 -0.21603259 2.9154813
0.048374638 -0.0078322748 0.10570095
1.1146064 -0.17773013 2.3985682
1.5090237 -0.23703077 3.1988637
1.2385894 -0.19169109 2.5869789
1.0158902 -0.1549463 2.0910873
0.85879648 -0.1291147 1.7424755
0.8695721 -0.12889344 1.7394893
1.9584125 -0.28625637 3.8631909
1.5656403 -0.22571096 3.0460961
0.057215292 -0.0081369923 0.10981328
1.0542849 -0.14793816 1.996509
0.81018019 -0.11218932 1.5140581
1.2716403 -0.17380291 2.3455679
0.30538678 -0.041203979 0.55607086
0.215588 -0.028719772 0.38758948
0.54309088 -0.071444042 0.96417749
1.4947598 -0.19420923 2.6209629
1.4559562 -0.18686068 2.5217903
-0.12112276 -0.014064675 0.20979078
-0.12587889 -0.014797407 0.22072032
-0.12274362 -0.014609211 0.21791315
-0.12086277 -0.01456744 0.2172901
-0.12024184 -0.014678403 0.21894524
-0.11941824 -0.014767186 0.22026953
-0.11864747 -0.014864924 0.22172742
-0.11577258 -0.014698135 0.21923955
-0.11309169 -0.014551802 0.21705683
-0.11080575 -0.014452974 0.2155827
-0.11002757 -0.014550798 0.21704186
-0.11055578 -0.014826576 0.22115542
-0.1118983 -0.015221003 0.22703874
-0.11192001 -0.015444592 0.23037381
-0.10991632 -0.01539115 0.22957668
-0.10622256 -0.015095926 0.22517307
-0.10260123 -0.014802205 0.22079189
-0.099637643 -0.014595799 0.21771312
-0.098868839 -0.014709477 0.21940875
-0.099436007 -0.015028683 0.22417007
-0.099798582 -0.015326764 0.22861628
-0.098693691 -0.015405555 0.22979155
-0.096514151 -0.01531643 0.22846213
-0.094183631 -0.015199916 0.22672421
-0.092317887 -0.015155688 0.22606449
-0.090700634 -0.015151416 0.22600077
-0.089279607 -0.015180358 0.22643247
-0.089237541 -0.015449083 0.23044081
-0.090047754 -0.01587804 0.23683921
-0.090041585 -0.016176518 0.24129133
-0.088931665 -0.016284367 0.24290003
-0.087540947 -0.016344018 0.24378979
-0.086130068 -0.016402217 0.24465792
-0.085008241 -0.016518962 0.24639928
-0.083863489 -0.016636021 0.24814537
-0.082547836 -0.016723441 0.24944931
-0.081101894 -0.016787691 0.2504077
-0.078970984 -0.016709859 0.24924676
-0.076706216 -0.016599525 0.24760096
-0.074940562 -0.016594581 0.24752723
-0.073529042 -0.016669683 0.2486475
-0.072477899 -0.016832147 0.2510708
-0.071500711 -0.017020335 0.25387788
-0.070846923 -0.017297136 0.25800663
-0.07014849 -0.017577313 0.26218581
-0.069293432 -0.017832329 0.26598969
-0.068274349 -0.018058132 0.2693578
-0.067329213 -0.018316956 0.27321842
-0.065931261 -0.018464191 0.27541459
-0.063487716 -0.018318655 0.27324378
-0.060763054 -0.018080374 0.26968953
-0.058104951 -0.017847165 0.26621094
-0.056328513 -0.017878242 0.26667452
-0.054887518 -0.018021602 0.26881287
-0.054000858 -0.018363709 0.2739158
-0.053177528 -0.018753491 0.27972987
-0.052190591 -0.019113345 0.28509745
-0.050856605 -0.019369802 0.28892282
-0.049288504 -0.019554745 0.2916815
-0.047684897 -0.019741075 0.2944608
-0.046016861 -0.019916458 0.29707682
-0.044242941 -0.020060534 0.2992259
-0.0424444 -0.020207297 0.30141503
-0.040715605 -0.02040446 0.30435595
-0.038757965 -0.02050247 0.3058179
-0.036340579 -0.020354515 0.30361092
-0.034048345 -0.020262536 0.302239
-0.03207846 -0.020362919 0.30373633
-0.030430943 -0.020696895 0.30871794
-0.028570116 -0.02092601 0.31213546
-0.026402701 -0.020950042 0.31249392
-0.02418711 -0.020936741 0.31229553
-0.022085451 -0.021029264 0.31367558
-0.020121394 -0.021287926 0.31753382
-0.018039908 -0.021471487 0.32027188
-0.015937246 -0.02167869 0.32336256
-0.012678673 -0.020120572 0.30012143
-0.011934326 -0.02272719 0.3390021
-0.013578268 -0.032322295 0.48212412
