# .PCD v0.7 - Point Cloud Data file format
VERSION 0.7
FIELDS x y z
SIZE 4 4 4
TYPE F F F
COUNT 1 1 1
WIDTH 1368
HEIGHT 1
VIEWPOINT 0 0 0 1 0 0 0
POINTS 1368
DATA ascii
0.07726869 -0.16829562 0.42208961
0.079830714 -0.16743602 0.41993371
0.081676118 -0.16518846 0.41429678
0.082668088 -0.16142936 0.40486884
0.081714198 -0.15424776 0.38685724
0.083043925 -0.15170112 0.38047022
0.084851131 -0.15015861 0.37660158
0.087920628 -0.15087576 0.37840018
0.091588028 -0.15254657 0.38259059
0.09393888 -0.15199172 0.38119903
0.095756531 -0.15062898 0.37778124
0.09791211 -0.1498571 0.37584534
0.099788852 -0.14871031 0.37296915
0.10293167 -0.14946072 0.3748512
0.10476352 -0.14831761 0.37198424
0.1063719 -0.1469216 0.36848304
0.10808355 -0.14573134 0.36549786
0.10947934 -0.14418043 0.36160812
0.1115247 -0.14353606 0.359992
0.1100971 -0.13854983 0.34748641
0.11212534 -0.13803479 0.34619471
0.12211861 -0.1471386 0.36902729
0.11322992 -0.13358651 0.3350383
0.12023876 -0.13896039 0.34851611
0.13399069 -0.15175647 0.38060901
0.16408603 -0.1821982 0.45695761
0.12412644 -0.13517725 0.33902791
0.12023617 -0.12847003 0.32220605
0.31812719 -0.33361816 0.83672261
0.29365683 -0.30235702 0.75831896
0.15680967 -0.15857233 0.39770338
0.3519668 -0.34967893 0.87700349
0.061482169 -0.060029376 0.15055516
0.26867467 -0.25787982 0.64676905
0.13905403 -0.13124265 0.3291598
0.31756335 -0.29481068 0.73939252
0.5134818 -0.46900338 1.1762722
0.22123177 -0.19886097 0.4987483
0.95725566 -0.84701401 2.1243322
0.67494226 -0.58802509 1.4747818
1.6949849 -1.4543352 3.6475089
1.966868 -1.6624289 4.1694131
0.27515468 -0.22914512 0.57470167
0.17937391 -0.14721525 0.36921951
1.9746745 -1.5974971 4.0065627
0.78619862 -0.62707072 1.5727091
1.747445 -1.3744017 3.4470334
0.11000779 -0.085338153 0.21403019
1.9226744 -1.4713522 3.6901884
0.064430565 -0.048648935 0.12201273
0.85467529 -0.63683975 1.59721
1.5041131 -1.1061968 2.7743692
1.1266081 -0.81793898 2.0514114
0.34683082 -0.24861838 0.62354106
2.232342 -1.5802048 3.9631932
0.95438606 -0.66723943 1.673453
0.20807047 -0.14369419 0.36038864
-0.12141147 -0.082363166 0.21029083
-0.15159617 -0.10410951 0.26581392
-0.088517226 -0.061549567 0.15714924
-0.12161598 -0.085634887 0.21864423
-0.12232988 -0.087241895 0.22274728
-0.091683857 -0.066235274 0.16911286
-0.1215343 -0.088955417 0.22712228
-0.11710142 -0.086853646 0.22175598
-0.11422063 -0.085861802 0.21922362
-0.11251839 -0.085740857 0.21891479
-0.11268365 -0.087059371 0.22228126
-0.11209437 -0.087823868 0.22423318
-0.1104179 -0.087746255 0.22403502
-0.10738153 -0.086570047 0.22103192
-0.10628814 -0.0869487 0.22199866
-0.10563017 -0.087700151 0.22391731
-0.10494693 -0.088453084 0.2258397
-0.10319222 -0.088312209 0.22548001
-0.1016494 -0.088351116 0.22557935
-0.099741131 -0.088068575 0.22485794
-0.096888341 -0.086929463 0.22194958
-0.096068978 -0.087607339 0.22368033
-0.095610529 -0.088642418 0.22632313
-0.094944499 -0.089516886 0.22855581
-0.093590997 -0.089762151 0.22918203
-0.091559857 -0.089354709 0.22814173
-0.090091147 -0.08949139 0.22849071
-0.08939825 -0.090417713 0.23085581
-0.089454845 -0.092150405 0.23527975
-0.089368537 -0.093798503 0.23948771
-0.0887421 -0.094932199 0.24238227
-0.087523192 -0.09546411 0.24374035
-0.086381949 -0.096103713 0.2453734
-0.084867604 -0.096345857 0.24599165
-0.08285588 -0.096021675 0.24516395
-0.080052875 -0.094747171 0.24190986
-0.077405125 -0.093604997 0.23899364
-0.075213097 -0.092975415 0.23738621
-0.073799849 -0.093301788 0.23821948
-0.072599515 -0.093918771 0.23979479
-0.071556114 -0.094773002 0.2419758
-0.07000763 -0.094983608 0.24251352
-0.06804017 -0.094622098 0.24159051
-0.066119596 -0.09430892 0.2407909
-0.06464047 -0.094625473 0.24159914
-0.063295119 -0.095160276 0.24296461
-0.061983075 -0.095776245 0.24453731
-0.060539939 -0.096219063 0.2456679
-0.059314631 -0.097044319 0.24777497
-0.058178287 -0.098069549 0.25039259
-0.056896474 -0.098905988 0.25252819
-0.055057276 -0.098796196 0.25224787
-0.053232312 -0.098705478 0.25201628
-0.051625889 -0.099027708 0.25283897
-0.050457526 -0.10024324 0.25594249
-0.049367309 -0.10170981 0.25968698
-0.047915027 -0.10251456 0.26174167
-0.046325941 -0.10307929 0.26318353
-0.044773504 -0.10377602 0.26496243
-0.043331455 -0.10480031 0.26757768
-0.041756824 -0.1055825 0.26957476
-0.040031359 -0.10603964 0.27074194
-0.03822111 -0.10630665 0.2714237
-0.036399964 -0.10656989 0.2720958
-0.034638602 -0.10704713 0.2733143
-0.032939058 -0.1077828 0.27519259
-0.031153608 -0.10831175 0.27654311
-0.029273292 -0.10855941 0.27717546
-0.027448473 -0.10906297 0.27846116
-0.025705103 -0.10999253 0.28083453
-0.024081273 -0.11163114 0.28501827
-0.022406334 -0.11330923 0.2893028
-0.020598035 -0.1145811 0.29255015
-0.018624755 -0.11511587 0.29391551
-0.016621696 -0.11557729 0.29509363
-0.014623196 -0.11620677 0.29670081
-0.012760966 -0.11830947 0.30206946
-0.010822376 -0.12040369 0.30741644
-0.0087657003 -0.12190283 0.3112441
-0.0065520359 -0.12149046 0.31019121
-0.0043479223 -0.12093136 0.30876368
-0.0021898285 -0.12181402 0.31101733
0 -0.12373453 0.3159208
0.0022553359 -0.12545802 0.32032123
0.0045469943 -0.12646827 0.32290062
0.0068602902 -0.12720624 0.32478479
0.0091961827 -0.12788945 0.32652923
0.011658313 -0.12970385 0.33116174
0.014246628 -0.13208333 0.33723706
0.016928701 -0.13452803 0.34347892
0.019682799 -0.13686237 0.349439
0.022278899 -0.13770141 0.35158125
0.024843737 -0.13819876 0.35285106
0.027617062 -0.13965997 0.35658187
0.030693375 -0.1422822 0.36327699
0.03406794 -0.14577723 0.37220055
0.037213851 -0.14786443 0.37752962
0.040246226 -0.1492523 0.38107315
0.043044105 -0.14965144 0.38209224
0.046349883 -0.15166552 0.38723463
0.050100964 -0.15483202 0.39531934
0.054194193 -0.15866689 0.40511063
0.057887733 -0.16100661 0.41108444
0.061214972 -0.16215321 0.41401193
0.064349055 -0.16270716 0.41542628
0.067781247 -0.16393393 0.41855851
0.071275435 -0.16520219 0.42179665
0.074123129 -0.16493049 0.42110291
0.076637939 -0.16396745 0.41864407
0.079137899 -0.16304515 0.41628924
0.08120919 -0.16133712 0.4119283
0.081694387 -0.15670447 0.40010014
0.081742883 -0.15157092 0.38699305
0.082098931 -0.14732043 0.37614065
0.083437949 -0.14504436 0.37032935
0.086683691 -0.14612032 0.37307656
0.089762896 -0.14686054 0.37496647
0.092979476 -0.14777678 0.37730584
0.095441081 -0.14747556 0.37653673
0.097180583 -0.14610496 0.37303734
0.099645525 -0.14586845 0.37243345
0.10201737 -0.1455113 0.37152156
0.10320726 -0.14352827 0.36645848
0.10507036 -0.14255536 0.36397439
0.10672092 -0.14134729 0.36088994
0.10758366 -0.13917622 0.35534674
0.10825995 -0.13686813 0.34945369
0.10911538 -0.13488406 0.34438798
0.11768934 -0.14232017 0.36337394
0.11537393 -0.13655168 0.34864572
0.14352788 -0.16633445 0.42468753
0.12269236 -0.13928637 0.35562798
0.15489884 -0.17233177 0.43999994
0.12873411 -0.14041406 0.35850725
0.16182482 -0.17311274 0.44199392
0.20584638 -0.21605013 0.55162233
0.17791095 -0.18327197 0.46793267
1.4002423 -1.4162101 3.6158881
0.091137134 -0.09053041 0.23114356
0.39971641 -0.39008954 0.99598223
1.3251262 -1.2709147 3.2449179
0.074831732 -0.070553891 0.18013921
0.1393449 -0.12918943 0.32984835
0.53393233 -0.4869042 1.2431709
0.061742283 -0.055395972 0.1414378
1.5924034 -1.4060467 3.5899386
0.34443605 -0.29937518 0.76436907
1.5727491 -1.3459635 3.4365335
1.4805781 -1.2478849 3.1861179
2.0017602 -1.6619749 4.2433782
1.5806862 -1.2930757 3.3014994
1.7341549 -1.3980604 3.5695484
0.17683466 -0.14052595 0.3587929
2.0770888 -1.6273609 4.1550016
2.057478 -1.5896072 4.0586085
2.1487494 -1.6373823 4.1805882
0.032628581 -0.024527518 0.062624022
1.7101825 -1.2684355 3.2385879
0.39247009 -0.2872633 0.73344487
0.057876404 -0.041811716 0.10675428
0.10352639 -0.073831826 0.18850851
0.1479989 -0.10421219 0.26607609
1.8579881 -1.2919333 3.298583
1.063215 -0.7301687 1.8642774
1.5682759 -1.0638877 2.7163336
-0.14998847 -0.099915937 0.25978768
-0.12347239 -0.083267495 0.21650068
-0.12524445 -0.08551833 0.22235301
-0.15663604 -0.1083067 0.28160417
-0.12417175 -0.086959869 0.2261011
-0.12383775 -0.087852269 0.22842139
-0.11858145 -0.085230269 0.22160403
-0.11647291 -0.084830955 0.22056578
-0.11348362 -0.0837707 0.21780905
-0.11228172 -0.084018879 0.21845433
-0.11158147 -0.08465454 0.22010709
-0.11057112 -0.08506953 0.22118609
-0.1090489 -0.085096933 0.22125736
-0.10787094 -0.085397676 0.2220393
-0.10687639 -0.085854597 0.22322731
-0.10597936 -0.086404659 0.22465752
-0.10438616 -0.086395204 0.22463293
-0.10254155 -0.08617419 0.22405829
-0.10153875 -0.086664759 0.22533379
-0.10075147 -0.087357767 0.22713566
-0.097380757 -0.085797004 0.2230776
-0.094951048 -0.085027739 0.22107743
-0.094112456 -0.085681401 0.22277699
-0.093502551 -0.086568952 0.22508469
-0.092744455 -0.087347537 0.22710904
-0.091280319 -0.08747682 0.2274452
-0.090523325 -0.088300496 0.22958681
-0.09011019 -0.089495644 0.23269427
-0.089948103 -0.090989009 0.23657711
-0.089196913 -0.091931567 0.23902781
-0.087978803 -0.092419878 0.24029747
-0.086658552 -0.092817947 0.24133247
-0.08606568 -0.094026595 0.24447502
-0.085072562 -0.094838381 0.24658573
-0.08315257 -0.094629191 0.24604182
-0.080038339 -0.093023114 0.24186593
-0.077140108 -0.091603719 0.23817538
-0.075018995 -0.091064565 0.23677355
-0.073676102 -0.091467053 0.23782006
-0.072720304 -0.092379987 0.24019374
-0.071753703 -0.093322366 0.24264398
-0.070115857 -0.093416385 0.24288844
-0.067938261 -0.09277802 0.24122865
-0.065758273 -0.092103571 0.23947504
-0.064137742 -0.092197843 0.23972015
-0.062984265 -0.092986748 0.24177136
-0.061818007 -0.093800075 0.24388607
-0.060491934 -0.094410457 0.24547309
-0.059257116 -0.09520337 0.24753471
-0.058103077 -0.096178032 0.2500689
-0.056845032 -0.097036079 0.25229985
-0.055176266 -0.097225755 0.25279304
-0.053545445 -0.097497165 0.25349873
-0.052095883 -0.098128714 0.25514078
-0.05079104 -0.099087708 0.25763422
-0.049364191 -0.099870898 0.25967056
-0.047787905 -0.10040037 0.26104724
-0.046117991 -0.10076763 0.26200214
-0.044576757 -0.10145837 0.26379812
-0.043043371 -0.10222783 0.26579875
-0.041431617 -0.10287264 0.26747531
-0.039788198 -0.10349649 0.26909736
-0.0381791 -0.10427649 0.27112538
-0.036562122 -0.10511591 0.27330795
-0.034901574 -0.1059164 0.27538922
-0.033218402 -0.10673836 0.27752641
-0.031366445 -0.10708681 0.2784324
-0.02943223 -0.10718218 0.27868038
-0.027504496 -0.10731646 0.27902949
-0.025749715 -0.10819813 0.28132191
-0.024104966 -0.10972762 0.28529868
-0.022465242 -0.11156015 0.29006335
-0.020671336 -0.11291698 0.2935912
-0.018693412 -0.11345843 0.294999
-0.0166195 -0.11347983 0.29505464
-0.014541663 -0.11347672 0.29504654
-0.012592771 -0.11464649 0.29808801
-0.010657188 -0.11642957 0.30272418
-0.0087036155 -0.11885855 0.30903962
-0.006556035 -0.11937427 0.31038055
-0.0043896534 -0.1198922 0.3117272
-0.0022125356 -0.12085955 0.31424239
0 -0.12253588 0.31860095
0.0022717763 -0.12409557 0.32265624
0.0045568831 -0.12445965 0.32360289
0.0068567693 -0.12485013 0.32461813
0.0091999816 -0.12563704 0.32666412
0.011660052 -0.12738584 0.33121115
0.014193862 -0.12922305 0.33598801
0.01686543 -0.13161036 0.34219518
0.019584961 -0.13372833 0.347702
0.022327105 -0.13551289 0.35234198
0.025089838 -0.137053 0.35634637
0.027944561 -0.13876989 0.3608104
0.030915983 -0.14073189 0.36591169
0.034192182 -0.14367267 0.37355793
0.037355617 -0.14575335 0.37896782
0.040411986 -0.14716673 0.38264269
0.043134011 -0.14726196 0.38289028
0.046416022 -0.14914535 0.38778722
0.050261576 -0.15252966 0.39658663
0.0545085 -0.15671167 0.40746012
0.058511704 -0.15980981 0.41551551
0.061783545 -0.16071048 0.41785729
0.064943694 -0.16125196 0.41926518
0.068165049 -0.1618917 0.42092854
0.071472205 -0.16267343 0.42296109
0.074185707 -0.16209549 0.42145836
0.075992934 -0.15965794 0.41512063
0.077435777 -0.15666379 0.40733561
0.079151765 -0.15441635 0.40149215
0.079729192 -0.1501793 0.39047557
0.079829238 -0.14535548 0.37793335
0.081210345 -0.14310023 0.37206954
0.083394498 -0.14235677 0.37013647
0.086366832 -0.14296302 0.3717128
0.089001492 -0.14299113 0.37178585
0.092241362 -0.14396216 0.37431058
0.094428979 -0.14328261 0.37254375
0.097141385 -0.14341456 0.37288684
0.099737555 -0.14337249 0.3727774
0.10119646 -0.14173967 0.368532
0.10259301 -0.14010334 0.36427742
0.10387185 -0.13839 0.35982263
0.10589632 -0.13772801 0.35810143
0.10700047 -0.13592769 0.35342047
0.10809198 -0.13419351 0.34891152
0.10850161 -0.13170867 0.34245077
0.11678085 -0.13867702 0.36056888
0.11156385 -0.12966307 0.3371321
0.1178607 -0.13412769 0.3487404
0.10668141 -0.11892781 0.30921972
0.14009112 -0.15304928 0.39793772
0.11157148 -0.11950161 0.31071165
0.082454495 -0.086616702 0.22520885
0.027018437 -0.027846787 0.072403386
1.5572636 -1.5752846 4.0958385
0.059694171 -0.059287056 0.15415007
0.07494618 -0.073105857 0.19007978
0.069656007 -0.066753551 0.17356341
0.43810594 -0.41261199 1.072817
0.28544742 -0.26428029 0.68714529
1.4321505 -1.3038515 3.3900952
1.8156551 -1.6259016 4.2274456
1.1376693 -1.00234 2.6061468
1.6452767 -1.4265568 3.709137
0.21348348 -0.18221118 0.47376046
1.8793563 -1.5793793 4.1064849
1.7514513 -1.4495887 3.769021
0.043429386 -0.035407852 0.092062622
1.8705337 -1.5026137 3.9068892
1.9590448 -1.5509077 4.0324569
1.6833717 -1.3136288 3.4155171
0.45351526 -0.34891871 0.90721041
0.054928962 -0.041673463 0.10835361
1.3597581 -1.0174885 2.6455338
1.681226 -1.2410381 3.2267764
1.9959624 -1.4537234 3.7797716
2.0018096 -1.4387982 3.7409654
1.1193686 -0.79409605 2.0646994
1.899724 -1.3304133 3.4591579
1.1935642 -0.82529533 2.1458194
1.3882279 -0.94789779 2.4645936
1.7518679 -1.1814274 3.071785
1.1760896 -0.78346086 2.0370471
-0.10009637 -0.06545645 0.17337202
-0.13937007 -0.092264034 0.24437623
-0.12357109 -0.082827561 0.21938218
-0.10316569 -0.070025496 0.18547384
-0.12353405 -0.084925883 0.22493996
-0.12352973 -0.086025804 0.22785327
-0.12183382 -0.085961156 0.22768202
-0.11544614 -0.082540318 0.21862137
-0.11348733 -0.082236305 0.21781616
-0.11201092 -0.082278334 0.21792749
-0.11114261 -0.082774393 0.2192414
-0.10974386 -0.082883842 0.21953125
-0.10922764 -0.083672449 0.22162001
-0.10880219 -0.084554456 0.22395617
-0.10816946 -0.085298955 0.22592808
-0.10594746 -0.084793724 0.2245899
-0.10355341 -0.084133402 0.22284092
-0.10193168 -0.084089898 0.2227257
-0.10100583 -0.084628075 0.22415113
-0.099684715 -0.084846906 0.22473076
-0.097506665 -0.084331639 0.22336601
-0.094642796 -0.083196618 0.2203597
-0.093055978 -0.083165079 0.22027618
-0.092390999 -0.083970286 0.22240889
-0.092100419 -0.085149392 0.22553195
-0.091033772 -0.085639797 0.22683087
-0.090535223 -0.086691707 0.22961701
-0.090388648 -0.088124998 0.23341332
-0.090268731 -0.089637876 0.23742041
-0.089239612 -0.090287954 0.23914225
-0.087662511 -0.090397947 0.23943357
-0.086153314 -0.090583645 0.23992544
-0.085124791 -0.09129227 0.24180236
-0.083944328 -0.091863558 0.2433155
-0.081835128 -0.091421112 0.24214362
-0.078819551 -0.089925744 0.2381829
-0.076307818 -0.088952705 0.23560564
-0.074719124 -0.089036323 0.2358271
-0.073792852 -0.089931041 0.23819689
-0.073097318 -0.091155089 0.24143901
-0.072036162 -0.091970645 0.24359915
-0.070151649 -0.091749147 0.24301244
-0.067843668 -0.090948865 0.2408928
-0.065579623 -0.090167969 0.23882444
-0.063872136 -0.090131335 0.23872742
-0.062802799 -0.091017574 0.24107477
-0.061804358 -0.092058644 0.24383222
-0.06067216 -0.092954271 0.24620444
-0.059580039 -0.093965806 0.24888365
-0.058334015 -0.094788551 0.25106281
-0.056924157 -0.095388189 0.25265107
-0.055208355 -0.095497303 0.25294006
-0.05364899 -0.095893301 0.25398892
-0.052173011 -0.096470796 0.25551853
-0.050766841 -0.097223245 0.2575115
-0.049070507 -0.097455136 0.25812569
-0.047401648 -0.097761549 0.25893727
-0.045898281 -0.098447427 0.26075393
-0.044520013 -0.099469975 0.26346231
-0.042917907 -0.10005958 0.26502401
-0.041198391 -0.10041661 0.26596963
-0.039535794 -0.10095298 0.26739028
-0.038099706 -0.10215029 0.27056158
-0.036715023 -0.1036187 0.2744509
-0.035214081 -0.10490395 0.27785507
-0.033511076 -0.10570303 0.27997157
-0.031630673 -0.10600746 0.2807779
-0.029617321 -0.10587721 0.28043291
-0.027633045 -0.10583971 0.28033361
-0.025826955 -0.10653145 0.2821658
-0.02417809 -0.10804103 0.2861641
-0.022503965 -0.10970195 0.29056334
-0.020710984 -0.11105771 0.29415432
-0.018753106 -0.11173228 0.29594103
-0.016616294 -0.11137614 0.29499772
-0.014503113 -0.11109927 0.29426438
-0.012499123 -0.11170594 0.29587123
-0.010597 -0.11364777 0.30101451
-0.0086479383 -0.11593126 0.30706269
-0.006593687 -0.1178569 0.31216308
-0.0044317297 -0.11882046 0.31471524
-0.0022401512 -0.12012275 0.31816456
0 -0.12077077 0.3198809
0.0022663607 -0.12152818 0.32188705
0.0045124688 -0.12098518 0.32044885
0.0067879274 -0.1213288 0.32135898
0.0091125257 -0.12215936 0.32355881
0.011578294 -0.12417168 0.32888877
0.014070145 -0.12574632 0.33305949
0.01662766 -0.12737408 0.33737087
0.019286077 -0.12927122 0.34239575
0.022156462 -0.1320097 0.34964904
0.025015574 -0.13414004 0.3552916
0.027941091 -0.13620676 0.36076564
0.03090867 -0.13811697 0.36582512
0.03424703 -0.14126272 0.37415719
0.037445888 -0.14342473 0.37988365
0.040334087 -0.14418794 0.38190508
0.04302964 -0.14421012 0.38196382
0.046370916 -0.14626645 0.38741034
0.050418541 -0.15019856 0.39782515
0.054778233 -0.15459746 0.40947643
0.0587673 -0.15756281 0.41733059
0.062236253 -0.15891764 0.42091909
0.065305151 -0.15917423 0.4215987
0.068321757 -0.15928659 0.42189631
0.071214758 -0.15911338 0.42143753
0.073382691 -0.15739886 0.41689634
0.075034291 -0.15475135 0.40988398
0.076247342 -0.15142895 0.40108407
0.077403829 -0.14823556 0.39262587
0.07871516 -0.1455487 0.38550928
0.080061264 -0.14310314 0.37903181
0.081617735 -0.14117923 0.37393603
0.083789036 -0.14040585 0.37188759
0.086670481 -0.14083326 0.37301967
0.089467146 -0.14110182 0.37373102
0.091395259 -0.14002435 0.37087718
0.093065828 -0.13862313 0.3671658
0.096032768 -0.13917644 0.3686313
0.099381313 -0.14023909 0.37144592
0.10145753 -0.13949791 0.36948273
0.10285248 -0.13788046 0.36519873
0.10393357 -0.13593145 0.36003643
0.10829979 -0.13826945 0.36622906
0.10852014 -0.13532868 0.35843989
0.11011932 -0.13420196 0.35545558
0.11329471 -0.13500352 0.35757867
0.11795054 -0.13749601 0.36418042
0.10467745 -0.11942719 0.31632224
0.09689831 -0.10824876 0.28671435
0.12602735 -0.13791664 0.36529455
0.13819899 -0.14821181 0.39256299
0.14458537 -0.1520205 0.40265089
0.13386996 -0.13804725 0.36564046
1.5809658 -1.5995381 4.2366357
1.4112377 -1.4013751 3.7117686
0.31541398 -0.30751491 0.81450301
0.33061147 -0.31657591 0.83850253
0.60640854 -0.57047737 1.5110017
0.50610608 -0.46790916 1.239333
1.325895 -1.2050501 3.1917701
0.027475892 -0.024555486 0.06503918
0.6822384 -0.59972799 1.5884765
1.6905584 -1.4621315 3.8726921
1.7330726 -1.4751092 3.9070656
0.10846647 -0.090878993 0.24070771
1.3652799 -1.1263058 2.9832032
1.5732466 -1.278206 3.3855355
1.8842684 -1.5080507 3.9943161
1.8247597 -1.4389467 3.8112831
0.28333464 -0.2201905 0.58321017
0.56162542 -0.43022603 1.1395231
0.92950326 -0.70200562 1.8593754
0.1538966 -0.1146158 0.3035785
0.84234685 -0.61875117 1.6388627
0.51124686 -0.37046474 0.9812358
2.1377895 -1.5284516 4.0483513
0.51117218 -0.360663 0.95527428
0.30629373 -0.21330221 0.56496543
0.28804135 -0.19801961 0.52448702
0.45846438 -0.31119063 0.82423872
2.2563317 -1.5123799 4.0057831
2.3052871 -1.5261176 4.0421696
1.1260852 -0.73638576 1.9504368
-0.138106 -0.088624172 0.23920661
-0.11692823 -0.075960509 0.20502594
-0.12004516 -0.078960195 0.21312243
-0.11955506 -0.079633228 0.21493904
-0.12044004 -0.081251189 0.21930611
-0.11908503 -0.081380419 0.21965492
-0.11777543 -0.081544481 0.22009774
-0.11403868 -0.080010034 0.21595608
-0.11174029 -0.079456888 0.21446308
-0.1106144 -0.079733774 0.21521042
-0.10972873 -0.080193907 0.21645238
-0.10864502 -0.08052022 0.21733314
-0.10911217 -0.082021676 0.22138573
-0.10917027 -0.08325471 0.22471383
-0.10876422 -0.084164836 0.22717035
-0.10586107 -0.083140947 0.22440676
-0.10337053 -0.082415007 0.22244737
-0.10085589 -0.081647225 0.22037503
-0.10025844 -0.082431734 0.22249253
-0.099245146 -0.082893826 0.22373979
-0.09770716 -0.082925513 0.22382531
-0.095480084 -0.082363814 0.2223092
-0.094145231 -0.082565866 0.22285455
-0.093288295 -0.083201021 0.2245689
-0.092690729 -0.084093384 0.2269775
-0.091360345 -0.084340543 0.22764459
-0.090464279 -0.085004628 0.22943707
-0.090251975 -0.086347044 0.23306039
-0.090235785 -0.087930292 0.23733376
-0.089274436 -0.088634893 0.23923557
-0.0876026 -0.088647634 0.23926993
-0.085757039 -0.088481627 0.23882186
-0.084156588 -0.088566929 0.2390521
-0.082529537 -0.08862716 0.23921467
-0.080413386 -0.088153712 0.23793679
-0.077747405 -0.087044537 0.234943
-0.075727329 -0.086626008 0.23381335
-0.074520409 -0.087139726 0.23519994
-0.073745221 -0.088193119 0.23804314
-0.073169962 -0.089540169 0.24167898
-0.072116889 -0.090352707 0.24387214
-0.07021527 -0.090115853 0.24323283
-0.068043068 -0.089511208 0.24160081
-0.065849721 -0.088847011 0.23980808
-0.064083852 -0.088739805 0.23951873
-0.06282822 -0.089352459 0.24117234
-0.061726276 -0.090223789 0.24352416
-0.060757671 -0.09134537 0.24655144
-0.05997673 -0.092823371 0.25054073
-0.058749996 -0.093680114 0.25285316
-0.057074156 -0.093851887 0.25331679
-0.055133585 -0.093585387 0.25259751
-0.05344332 -0.093740165 0.25301525
-0.051960636 -0.094282247 0.25447839
-0.05045671 -0.094823152 0.25593835
-0.04868352 -0.094879352 0.25609004
-0.04708061 -0.095284492 0.25718358
-0.045841344 -0.096487455 0.26043049
-0.044683218 -0.097968549 0.26442814
-0.043099768 -0.098605379 0.26614699
-0.041263446 -0.098695271 0.26638964
-0.039531071 -0.099054165 0.26735836
-0.038062163 -0.10014216 0.27029496
-0.03670679 -0.10165911 0.27438939
-0.035278376 -0.10313108 0.27836239
-0.03362897 -0.10409219 0.28095651
-0.031836428 -0.10470269 0.28260434
-0.029947802 -0.10505754 0.28356209
-0.027966324 -0.10511407 0.28371471
-0.026097296 -0.10563447 0.2851193
-0.024334379 -0.1067069 0.28801394
-0.022585215 -0.10804012 0.29161242
-0.020763481 -0.10925811 0.29489991
-0.018801846 -0.10992879 0.29671016
-0.016662484 -0.10959816 0.29581776
-0.014539915 -0.10929929 0.29501107
-0.012512066 -0.1097315 0.29617766
-0.0105884 -0.11143301 0.30077019
-0.0086458214 -0.11373647 0.30698752
-0.0066130846 -0.11599421 0.31308141
-0.0044597923 -0.11733785 0.31670806
-0.0022502411 -0.1184084 0.31959763
0 -0.11858971 0.32008696
0.0022543923 -0.11862683 0.32018721
0.0045038178 -0.11849616 0.31983447
0.0067903246 -0.11910301 0.32147244
0.0091254143 -0.12004555 0.32401645
0.011547728 -0.12152904 0.32802054
0.013982557 -0.12262778 0.33098617
0.01643073 -0.12351289 0.33337519
0.019018454 -0.12509465 0.33764455
0.021914793 -0.12812927 0.3458353
0.024808349 -0.13054232 0.35234845
0.027742516 -0.13271092 0.35820171
0.030582787 -0.13410634 0.3619681
0.033904348 -0.13723521 0.37041324
0.037010834 -0.13910872 0.37547007
0.040012747 -0.14036557 0.37886247
0.04295069 -0.14125495 0.38126299
0.046368506 -0.14352505 0.38739023
0.050355006 -0.14720537 0.39732385
0.054515321 -0.15097967 0.40751112
0.058450866 -0.15378515 0.41508344
0.06219836 -0.15585227 0.42066282
0.065402552 -0.15643199 0.4222275
0.068543181 -0.15681583 0.42326355
0.07097172 -0.15560645 0.4199993
0.073289119 -0.15425988 0.41636476
0.074400924 -0.15057693 0.40642411
0.075399451 -0.14694606 0.39662394
0.0759966 -0.14282019 0.38548777
0.077618122 -0.14083759 0.38013652
0.079695292 -0.13978641 0.37729925
0.082243785 -0.13960305 0.37680435
0.085073963 -0.13989435 0.3775906
0.087640576 -0.13974774 0.37719485
0.089330509 -0.13825293 0.37316024
0.089883238 -0.13513385 0.36474147
0.091188848 -0.13328852 0.3597607
0.094276078 -0.13407668 0.36188805
0.098093696 -0.13583478 0.36663336
0.10114175 -0.13646439 0.36833274
0.10311763 -0.13565207 0.36614019
0.10424876 -0.1337952 0.3611283
0.10784119 -0.13511042 0.36467823
0.11069467 -0.13546021 0.36562234
0.11359367 -0.13584852 0.36667043
0.11482827 -0.13427334 0.36241886
0.11729396 -0.1341749 0.36215317
0.12400384 -0.13883238 0.37472424
0.14115337 -0.15474033 0.41766158
0.11276876 -0.12110058 0.32686409
0.10316474 -0.10857123 0.29304597
0.14900114 -0.15373504 0.4149482
0.15213789 -0.15395278 0.41553587
0.37564573 -0.37295467 1.0066466
0.4130879 -0.40253365 1.0864836
1.1665236 -1.1160517 3.0123491
1.5137212 -1.422366 3.8391259
1.0527701 -0.97187907 2.6232107
1.4346769 -1.3016062 3.5131814
0.086630054 -0.077262737 0.20854081
1.7485358 -1.5334752 4.1390219
0.38023916 -0.32800505 0.88532251
1.0129534 -0.85970855 2.3204503
1.2123576 -1.0126134 2.7331576
0.13401482 -0.11018597 0.29740435
0.60122472 -0.48671749 1.3137052
1.7886584 -1.4260573 3.8490889
0.22800119 -0.17906711 0.48332223
0.15591043 -0.1206479 0.32564223
0.4219557 -0.32178906 0.86854494
0.35485488 -0.26675111 0.71999127
0.76089722 -0.56392473 1.5220963
1.2999234 -0.95003319 2.5642464
0.67845255 -0.48904642 1.3199914
2.035826 -1.4476461 3.9073598
1.966769 -1.3798935 3.724488
0.86731684 -0.60050648 1.6208345
1.5650828 -1.0695474 2.8868289
0.87142837 -0.58788252 1.5867611
2.1335461 -1.4211124 3.8357422
0.0045615146 -0.0030003546 0.008098294
1.1459059 -0.74441898 2.0092704
0.98031217 -0.62907737 1.6979506
-0.12479993 -0.078560077 0.21615982
-0.11776499 -0.075046882 0.20649317
-0.12139156 -0.078324914 0.21551275
-0.11915106 -0.077852435 0.21421272
-0.12009992 -0.07947848 0.21868683
-0.11929926 -0.079973929 0.22005007
-0.1165607 -0.079166226 0.21782765
-0.11354206 -0.07814423 0.21501559
-0.11114822 -0.077530429 0.21332672
-0.10872066 -0.076875977 0.21152598
-0.10794701 -0.077389054 0.21293771
-0.10671034 -0.077579968 0.21346302
-0.10714603 -0.079009533 0.21739648
-0.10743847 -0.080373362 0.22114912
-0.1078988 -0.081904754 0.22536279
-0.10614433 -0.081775531 0.22500722
-0.10291269 -0.080487125 0.22146212
-0.10034671 -0.079687685 0.21926245
-0.099355161 -0.08013308 0.220488
-0.098241121 -0.080492266 0.22147629
-0.096926644 -0.080696166 0.22203732
-0.096095085 -0.081315398 0.22374114
-0.095669888 -0.08230485 0.22646365
-0.095092826 -0.083194986 0.22891288
-0.09385974 -0.083531976 0.22984011
-0.091965631 -0.083282188 0.2291528
-0.090584353 -0.083496168 0.22974159
-0.09012951 -0.08458741 0.23274417
-0.090000302 -0.086030334 0.23671438
-0.089225851 -0.086899295 0.23910536
-0.087670617 -0.087026626 0.23945571
-0.085670426 -0.086708605 0.23858066
-0.083594702 -0.086299874 0.23745604
-0.081599429 -0.085959218 0.23651873
-0.079405338 -0.08539056 0.23495403
-0.077158622 -0.084739916 0.23316377
-0.075575829 -0.084805988 0.23334558
-0.07465072 -0.085629404 0.23561123
-0.073952861 -0.08675684 0.2387134
-0.073244199 -0.08792375 0.24192417
-0.072032765 -0.08852832 0.24358766
-0.070190229 -0.088367842 0.24314611
-0.068261728 -0.088088393 0.24237719
-0.066294596 -0.087743491 0.2414282
-0.064561874 -0.087698862 0.24130538
-0.063060991 -0.087975249 0.24206586
-0.061813004 -0.088629596 0.24386632
-0.060903549 -0.089820601 0.24714342
-0.060289759 -0.091530547 0.25184834
-0.059048116 -0.092362039 0.25413623
-0.05717551 -0.092227727 0.25376666
-0.055040453 -0.091647722 0.2521708
-0.053148225 -0.091446884 0.25161818
-0.051638369 -0.091912791 0.25290009
-0.050243437 -0.092623837 0.25485656
-0.048644438 -0.092997402 0.25588444
-0.047141433 -0.093590312 0.25751582
-0.045955673 -0.094885655 0.26108003
-0.044811655 -0.096378721 0.26518822
-0.043349233 -0.097287044 0.26768747
-0.041560046 -0.097511262 0.26830441
-0.039751329 -0.097708829 0.26884803
-0.038169388 -0.098511435 0.27105641
-0.036701068 -0.099707201 0.27434659
-0.035200316 -0.10094284 0.27774647
-0.033606078 -0.10203998 0.2807653
-0.031978093 -0.10316538 0.28386185
-0.030222956 -0.1040033 0.28616741
-0.028282467 -0.10427751 0.28692192
-0.026317652 -0.10449733 0.28752676
-0.0244307 -0.10508871 0.28915393
-0.022584638 -0.1059795 0.29160497
-0.020734224 -0.10702599 0.29448441
-0.018788287 -0.10775715 0.29649624
-0.016681785 -0.1076351 0.2961604
-0.014599543 -0.10765709 0.2962209
-0.012594132 -0.10834739 0.29812026
-0.010695482 -0.11041593 0.30381191
-0.0087359017 -0.1127325 0.310186
-0.0066662193 -0.11469903 0.31559697
-0.0044684308 -0.11532579 0.31732151
-0.0022465696 -0.1159635 0.31907618
0 -0.1159891 0.3191466
0.0022545755 -0.11637674 0.32021323
0.0045241397 -0.11676358 0.32127762
0.0068555181 -0.1179561 0.32455888
0.0092017222 -0.11874369 0.32672593
0.011644889 -0.12021723 0.33078042
0.014018882 -0.12060452 0.33184603
0.016501056 -0.12167886 0.33480212
0.019122923 -0.12338594 0.33949921
0.021992108 -0.12613213 0.34705541
0.024853902 -0.12829095 0.35299543
0.027706873 -0.13001584 0.35774148
0.030525668 -0.13130623 0.36129203
0.033530876 -0.13313828 0.36633298
0.036776379 -0.13559458 0.37309152
0.03995721 -0.13750084 0.37833664
0.043120477 -0.13911213 0.38277015
0.046682492 -0.1417446 0.39001343
0.050512251 -0.14485238 0.39856458
0.054233272 -0.14733762 0.40540272
0.057651341 -0.14879245 0.40940574
0.061301176 -0.15067838 0.41459492
0.064618364 -0.15161239 0.41716486
0.06787619 -0.15233196 0.41914478
0.070016377 -0.15058781 0.41434571
0.072357692 -0.14939846 0.41107321
0.073571049 -0.14606126 0.40189081
0.073966727 -0.14140801 0.38908732
0.074183248 -0.1367569 0.37628967
0.076211311 -0.13565095 0.37324661
0.079310618 -0.13646193 0.37547806
0.082853891 -0.13795982 0.37959957
0.085465029 -0.13786051 0.37932628
0.087756671 -0.13726747 0.37769452
0.088701986 -0.13466536 0.37053472
0.08887019 -0.13106583 0.3606306
0.090020828 -0.12907495 0.35515261
0.092410445 -0.12892014 0.35472664
0.096198298 -0.13067281 0.35954916
0.099428989 -0.13159816 0.36209533
0.10216672 -0.13184112 0.36276379
0.10493115 -0.13210584 0.36349219
0.10773891 -0.1324112 0.36433241
0.11062841 -0.13280049 0.36540353
0.1133134 -0.13293214 0.36576578
0.1154819 -0.13246551 0.36448184
0.11766852 -0.1320395 0.36330965
0.12906772 -0.1417494 0.39002663
0.13702831 -0.1473569 0.4054558
0.14182307 -0.14940056 0.41107902
0.11620523 -0.1199657 0.33008835
0.07979966 -0.080766693 0.22223136
0.11424021 -0.11340105 0.31202555
0.045893356 -0.044696692 0.12298395
0.20782578 -0.19865847 0.54661322
1.5266824 -1.432806 3.9423983
0.15863715 -0.14622387 0.4023383
1.7566564 -1.5907919 4.3770995
0.064434677 -0.057344668 0.15778515
0.22461824 -0.19651443 0.54071385
0.14622588 -0.1257982 0.34613657
0.46044081 -0.38962373 1.0720584
0.10037471 -0.083566844 0.22993605
1.9153146 -1.5692819 4.3179145
0.28577548 -0.23048697 0.63419008
0.32057765 -0.25457826 0.70047778
0.24719216 -0.19332685 0.53194314
0.12384871 -0.095415317 0.26253739
1.8478054 -1.4026481 3.8594179
1.813012 -1.3562914 3.7318664
0.22846498 -0.16847017 0.46354944
1.3836623 -1.0059426 2.7678735
1.6726958 -1.1991842 3.2995822
1.9979542 -1.4127461 3.8872023
1.5914322 -1.1100892 3.0544353
0.61616474 -0.42406946 1.1668366
2.1870892 -1.4854373 4.087214
0.21922411 -0.14695995 0.4043636
0.94717276 -0.62681019 1.7246822
2.037606 -1.331357 3.6632588
0.060089115 -0.038771022 0.10667934
0.24417375 -0.15560207 0.42814258
2.0818257 -1.3104846 3.605828
-0.12783374 -0.078907304 0.22141452
-0.13018091 -0.081348181 0.22826365
-0.1218392 -0.077087261 0.21630748
-0.12119352 -0.077649355 0.21788473
-0.12014964 -0.077967465 0.21877734
-0.11918813 -0.078347988 0.21984507
-0.11692067 -0.07786876 0.21850038
-0.11321974 -0.07640934 0.21440522
-0.11014002 -0.075335376 0.21139169
-0.10754625 -0.074568942 0.20924105
-0.10658898 -0.074931666 0.21025886
-0.10556954 -0.075260282 0.21118096
-0.10561448 -0.076367922 0.21428901
-0.10581166 -0.077619351 0.21780053
-0.10612897 -0.078997001 0.22166622
-0.10485048 -0.079210214 0.2222645
-0.10281037 -0.078845799 0.22124194
-0.10043268 -0.078207292 0.21945029
-0.098818585 -0.078152746 0.21929722
-0.098010615 -0.078744121 0.22095665
-0.09750253 -0.079599388 0.22335653
-0.097197793 -0.08065144 0.2263086
-0.097284473 -0.082068749 0.2302856
-0.096608609 -0.082879931 0.23256174
-0.095046706 -0.082945853 0.23274672
-0.092709497 -0.082325608 0.23100632
-0.091002285 -0.082252637 0.23080157
-0.090354286 -0.083151795 0.23332462
-0.089972042 -0.084333353 0.23664008
-0.089005403 -0.085001387 0.23851459
-0.087626725 -0.08529406 0.23933582
-0.085611269 -0.08496622 0.23841591
-0.083494522 -0.084522739 0.23717147
-0.081296101 -0.083976775 0.2356395
-0.079044119 -0.08335159 0.23388523
-0.077016927 -0.082941882 0.2327356
-0.075824715 -0.083433121 0.23411404
-0.075125337 -0.084500544 0.2371092
-0.074482352 -0.085681334 0.24042253
-0.073555656 -0.086583108 0.2429529
-0.072177671 -0.086983956 0.2440777
-0.070336819 -0.086832933 0.24365391
-0.068493083 -0.086670704 0.24319869
-0.066705078 -0.086572483 0.2429231
-0.064983137 -0.08655709 0.24287988
-0.063373968 -0.086695142 0.24326727
-0.061955493 -0.08710897 0.24442849
-0.060934309 -0.088121004 0.24726823
-0.060182065 -0.089592934 0.25139847
-0.058912303 -0.090360299 0.25355172
-0.056989513 -0.090142697 0.25294113
-0.054870885 -0.089591302 0.25139388
-0.0529515 -0.089339308 0.25068682
-0.05147884 -0.089849643 0.25211883
-0.050251082 -0.090839125 0.25489533
-0.048883487 -0.091639765 0.25714192
-0.047461469 -0.092396043 0.25926405
-0.046117608 -0.093371071 0.26199999
-0.044817794 -0.094520241 0.26522458
-0.043427385 -0.095569961 0.26817006
-0.041815754 -0.096206136 0.26995519
-0.040038597 -0.096503966 0.2707909
-0.038217135 -0.096719429 0.2713955
-0.036447782 -0.097096384 0.27245325
-0.034818321 -0.097908609 0.27473235
-0.033257894 -0.099021934 0.27785632
-0.031761553 -0.10047715 0.28193969
-0.030131543 -0.10167535 0.28530186
-0.028241076 -0.10210307 0.286502
-0.026256869 -0.1022316 0.28686267
-0.024354009 -0.10272468 0.28824627
-0.022539048 -0.10371186 0.29101631
-0.020680077 -0.10467374 0.29371536
-0.018733697 -0.10535776 0.29563472
-0.016654933 -0.10537522 0.29568371
-0.014595099 -0.10553453 0.29613075
-0.012622769 -0.10648512 0.29879811
-0.010727949 -0.10860062 0.3047342
-0.0087462422 -0.11067438 0.31055319
-0.0066620582 -0.11240166 0.31539994
-0.0044653499 -0.1130085 0.31710276
-0.0022386736 -0.11331211 0.31795469
0 -0.11358327 0.3187156
0.002267092 -0.11475053 0.32199091
0.0045799455 -0.11590867 0.32524064
0.0069785463 -0.11774141 0.33038336
0.0093980087 -0.11892178 0.33369547
0.011817642 -0.11963173 0.33568761
0.014232988 -0.12006886 0.33691421
0.016729455 -0.12096768 0.33943629
0.019349717 -0.12242503 0.34352562
0.022213778 -0.12492964 0.35055357
0.025075801 -0.12692301 0.35614699
0.027884986 -0.12831083 0.36004123
0.030577805 -0.12897651 0.36190912
0.033410884 -0.1300859 0.36502203
0.036570746 -0.13221824 0.37100542
0.039956551 -0.13482869 0.37833038
0.043376949 -0.13722226 0.38504678
0.04696298 -0.1398274 0.39235678
0.050465643 -0.14190866 0.39819685
0.053781915 -0.14327428 0.40202877
0.056961473 -0.14415736 0.40450671
0.060351916 -0.14546461 0.40817487
0.06380678 -0.14680123 0.41192544
0.067220934 -0.14793205 0.41509852
0.06953343 -0.14664525 0.41148773
0.071202025 -0.14415772 0.40450773
0.071969613 -0.1401075 0.39314279
0.072098479 -0.13515991 0.37925979
0.072596505 -0.13123307 0.36824104
0.07464353 -0.1302806 0.36556843
0.077896737 -0.13142669 0.36878437
0.081957377 -0.1338172 0.37549213
0.086040616 -0.13609403 0.381881
0.087712958 -0.13453504 0.37750638
0.087963969 -0.13095181 0.36745179
0.088116124 -0.12743036 0.35757062
0.089619339 -0.12600414 0.35356864
0.092351384 -0.12633604 0.35449997
0.095196106 -0.12680055 0.35580337
0.098141782 -0.12737228 0.35740763
0.10048987 -0.12715922 0.35680979
0.10350533 -0.12778045 0.35855296
0.10577177 -0.12746942 0.35768023
0.10870275 -0.12795511 0.35904306
0.11053924 -0.12715966 0.35681102
0.11225641 -0.12626536 0.3543016
0.11070941 -0.12181822 0.34182292
0.12330604 -0.13279204 0.37261558
0.12146311 -0.12808219 0.35939968
0.088343017 -0.09125606 0.25606525
0.13473582 -0.13639507 0.38272566
0.10685299 -0.1060479 0.29757127
1.582101 -1.5399848 4.3212099
1.6092083 -1.5368162 4.3123188
0.29402673 -0.2755996 0.77333474
0.27059162 -0.24902172 0.69875699
0.096147329 -0.086902998 0.2438505
0.18400726 -0.1633976 0.45849496
1.6525779 -1.4421802 4.0467691
0.053313397 -0.045737237 0.12833905
0.14623964 -0.12336712 0.34616914
0.17433041 -0.14465347 0.40589884
0.30268252 -0.24710479 0.69337809
0.021326123 -0.017133927 0.048077941
0.12249344 -0.096876502 0.27183622
1.3755751 -1.0711653 3.0056987
0.14265469 -0.10940261 0.3069846
1.2433534 -0.93930221 2.6356897
1.7665673 -1.3149427 3.6897399
0.029169243 -0.021397432 0.060041364
0.55551803 -0.40168509 1.1271316
0.43054932 -0.30693761 0.86126941
0.71255505 -0.50092357 1.4055957
0.21685505 -0.15035997 0.4219113
0.0019638219 -0.0013432471 0.0037691626
2.159174 -1.4571757 4.0888467
2.1529245 -1.4338402 4.0233674
0.26031286 -0.17111595 0.4801527
0.022797445 -0.014793711 0.041511275
0.54516083 -0.34928754 0.98010373
0.043187462 -0.027324565 0.076672949
0.74506801 -0.46558231 1.3064277
2.0854435 -1.2872715 3.6120939
-0.1306449 -0.079045653 0.22628361
-0.11147899 -0.068282187 0.19547106
-0.12371234 -0.076722443 0.21963295
-0.12263122 -0.077014655 0.22046947
-0.12146917 -0.077262871 0.22118004
-0.12109777 -0.07802698 0.22336747
-0.11799257 -0.077026553 0.22050354
-0.11422557 -0.075561658 0.21630999
-0.10998959 -0.07374274 0.21110298
-0.10781369 -0.073274091 0.20976138
-0.10691199 -0.073670454 0.21089603
-0.1060022 -0.074072324 0.21204646
-0.1057818 -0.074974276 0.21462852
-0.10527258 -0.075694717 0.2166909
-0.10511945 -0.07669615 0.21955769
-0.10387908 -0.076922379 0.22020531
-0.10242034 -0.076991305 0.22040263
-0.10057955 -0.076770738 0.21977121
-0.099629693 -0.07723394 0.22109722
-0.098454647 -0.077534512 0.22195767
-0.097536303 -0.078050189 0.2234339
-0.097388767 -0.079209708 0.22675323
-0.09753333 -0.080649406 0.23087467
-0.096798182 -0.081398159 0.23301812
-0.095231645 -0.081461556 0.2331996
-0.092956021 -0.080909975 0.23162057
-0.09127479 -0.080865309 0.23149271
-0.090361871 -0.081512071 0.2333442
-0.089709021 -0.082421742 0.23594829
-0.088666335 -0.083000802 0.23760599
-0.087451696 -0.083438076 0.23885776
-0.085665278 -0.083336271 0.23856634
-0.083687358 -0.083040364 0.23771924
-0.081390373 -0.082409322 0.23591276
-0.078953326 -0.081607215 0.23361658
-0.076839939 -0.081112638 0.23220076
-0.075841144 -0.08179871 0.23416476
-0.075313643 -0.083034866 0.2377035
-0.074730031 -0.084263965 0.24122202
-0.073500156 -0.084804565 0.24276958
-0.071873665 -0.084902383 0.24304965
-0.069910809 -0.084597953 0.24217814
-0.068087198 -0.084451012 0.24175748
-0.066447176 -0.084530078 0.24198385
-0.064920194 -0.084760904 0.24264465
-0.063402854 -0.08501713 0.24337812
-0.062008191 -0.085456669 0.24463639
-0.060894102 -0.086319037 0.24710508
-0.059907969 -0.087418839 0.2502535
-0.058588576 -0.08808428 0.25215843
-0.056757379 -0.087997794 0.25191084
-0.054750092 -0.087623894 0.25084049
-0.052985318 -0.087626137 0.25084692
-0.051693257 -0.088437259 0.25316891
-0.050635342 -0.08972121 0.25684446
-0.049399041 -0.090772472 0.2598539
-0.047941562 -0.091482542 0.26188663
-0.046261333 -0.091807365 0.26281649
-0.044738777 -0.092485197 0.26475692
-0.043336056 -0.093480475 0.26760611
-0.041804552 -0.09427581 0.26988292
-0.040070131 -0.094667487 0.27100417
-0.038167898 -0.094682045 0.2710458
-0.036203131 -0.094534844 0.27062443
-0.034442149 -0.094932981 0.27176416
-0.032916173 -0.096063815 0.27500141
-0.031404857 -0.097381443 0.27877337
-0.029751297 -0.098404281 0.28170148
-0.027855372 -0.098714352 0.28258908
-0.025915809 -0.098905586 0.28313652
-0.024070827 -0.099519715 0.28489462
-0.022375613 -0.10092103 0.28890613
-0.020537373 -0.10189298 0.2916885
-0.018615475 -0.10261976 0.29376906
-0.016539283 -0.10257136 0.29363054
-0.014540629 -0.10305867 0.29502556
-0.012624881 -0.10439397 0.29884812
-0.01073979 -0.1065676 0.30507052
-0.0087496191 -0.10852469 0.31067309
-0.0066439859 -0.10987701 0.31454435
-0.0044604577 -0.11064932 0.31675529
-0.0022351793 -0.11089495 0.31745842
0 -0.11141939 0.31895974
0.0022751661 -0.11287883 0.32313767
0.0046113827 -0.11439329 0.3274731
0.0070200786 -0.11609676 0.33234963
0.0094285924 -0.11694624 0.33478144
0.011924098 -0.11831912 0.33871156
0.014399821 -0.11907079 0.34086338
0.01697775 -0.12033209 0.34447411
0.019586632 -0.12147004 0.34773171
0.022382047 -0.1233834 0.35320902
0.025193086 -0.12499158 0.35781276
0.027964815 -0.12613007 0.36107194
0.030620456 -0.12659885 0.36241391
0.033450957 -0.12766287 0.36545983
0.036498066 -0.12934248 0.37026808
0.039897989 -0.1319651 0.37777588
0.043311626 -0.13430244 0.38446692
0.046905737 -0.13689148 0.39187858
0.050284494 -0.13859928 0.3967675
0.053508148 -0.13972229 0.3999823
0.056579385 -0.14035492 0.4017933
0.059697606 -0.14103828 0.40374961
0.063156977 -0.14242887 0.40773043
0.066023089 -0.14241882 0.40770167
0.06878072 -0.14218535 0.40703329
0.069908999 -0.13873705 0.39716187
0.070908584 -0.13530843 0.38734677
0.071396708 -0.13119395 0.37556827
0.072019681 -0.12761231 0.36531514
0.073964596 -0.12653926 0.36224329
0.077229962 -0.12772149 0.36562768
0.081067801 -0.12974365 0.37141651
0.084505491 -0.13101903 0.3750675
0.086340494 -0.12980756 0.37159947
0.087004751 -0.12695898 0.36344486
0.087880619 -0.12457316 0.35661498
0.08980488 -0.12376472 0.35430062
0.09221866 -0.12365635 0.35399044
0.094501853 -0.12338322 0.35320854
0.096320197 -0.12253273 0.35077387
0.098158404 -0.12174942 0.34853145
0.10196337 -0.12338425 0.35321149
0.10393493 -0.12277547 0.35146877
0.10629442 -0.12264262 0.3510884
0.1066559 -0.12026288 0.34427595
0.10478143 -0.11552373 0.33070922
0.14174709 -0.15288177 0.43765387
0.12630095 -0.13332394 0.3816658
0.14077641 -0.14550839 0.41654614
0.097678676 -0.098901547 0.28312498
0.11673342 -0.11583094 0.33158866
0.18974802 -0.18458928 0.52842283
0.45236552 -0.43160406 1.2355509
0.20942901 -0.19604707 0.56122303
0.15301006 -0.14058068 0.40243962
0.084015764 -0.075787485 0.21695645
0.31165341 -0.27611071 0.79042077
0.28872287 -0.25130767 0.71941715
0.26764414 -0.22894393 0.65539664
0.17603205 -0.14802639 0.42375442
0.28880835 -0.23881295 0.68364865
0.28193951 -0.22931132 0.65644836
0.21882994 -0.17511141 0.50129056
0.13872093 -0.10924482 0.31273457
0.3789469 -0.29376346 0.8409552
0.27390975 -0.20907088 0.59850609
1.7845547 -1.3414835 3.8402581
0.13567086 -0.10046416 0.28759825
0.10471094 -0.076398097 0.21870446
0.59692407 -0.42920956 1.2286961
0.55029458 -0.39002869 1.1165333
2.1243663 -1.4844667 4.2495751
0.22860414 -0.15752555 0.45094758
1.9449844 -1.3218819 3.7841446
0.27259624 -0.18276268 0.52319384
2.2207396 -1.4690472 4.2054343
2.0304053 -1.3254659 3.7944047
2.1853609 -1.4080946 4.0309458
0.11434643 -0.072732307 0.20821042
1.6265104 -1.0214783 2.924181
0.41964653 -0.26025137 0.74502033
2.3596382 -1.4453061 4.1374702
0.35391253 -0.21413197 0.61299455
-0.1253137 -0.074288338 0.21704969
-0.13262226 -0.079591617 0.23254441
-0.12357807 -0.075090908 0.21939459
-0.1223617 -0.07529296 0.2199849
-0.12162217 -0.075797364 0.22145866
-0.12032562 -0.075963207 0.22194323
-0.11779188 -0.075342089 0.22012848
-0.11375795 -0.073732071 0.21542443
-0.10995397 -0.072229579 0.21103461
-0.10838438 -0.072173826 0.21087171
-0.1077622 -0.072756179 0.21257316
-0.10796868 -0.073922276 0.21598017
-0.10753942 -0.074680224 0.21819466
-0.10652452 -0.07504753 0.21926786
-0.10514427 -0.075164475 0.21960954
-0.10304227 -0.074761242 0.2184314
-0.10155928 -0.074801728 0.21854967
-0.1008343 -0.075410336 0.22032784
-0.1007508 -0.076525204 0.22358519
-0.099692434 -0.076923244 0.22474815
-0.098563366 -0.077278689 0.22578667
-0.097672217 -0.077835396 0.22741321
-0.097324707 -0.078851104 0.23038083
-0.096402347 -0.079427615 0.23206523
-0.094982572 -0.079607107 0.23258965
-0.093196742 -0.079480715 0.23222038
-0.091719054 -0.079617307 0.23261946
-0.090679944 -0.080146484 0.23416555
-0.089832664 -0.080867954 0.23627348
-0.088493578 -0.08116556 0.23714301
-0.087220326 -0.081536166 0.23822583
-0.085472859 -0.081469305 0.23803046
-0.08382225 -0.081493929 0.23810241
-0.081469506 -0.080822989 0.23614213
-0.078941524 -0.079946637 0.23358168
-0.076585717 -0.079211071 0.23143253
-0.075521022 -0.079807915 0.23317637
-0.074848041 -0.080854431 0.23623398
-0.074252702 -0.082034312 0.23968126
-0.072876617 -0.082386427 0.24071005
-0.071156576 -0.08235722 0.24062471
-0.069075748 -0.081898823 0.23928541
-0.067266561 -0.081747621 0.23884365
-0.065771237 -0.081979886 0.23952225
-0.06460461 -0.082644865 0.24146512
-0.063336223 -0.08321207 0.24312235
-0.062085755 -0.083834998 0.2449424
-0.060852837 -0.084517904 0.24693762
-0.059700191 -0.085355744 0.24938555
-0.058295079 -0.085872456 0.25089526
-0.056562245 -0.085923627 0.25104475
-0.054631855 -0.085668311 0.2502988
-0.0530614 -0.085979193 0.25120711
-0.051947404 -0.087076664 0.2544136
-0.050978791 -0.088504925 0.25858659
-0.049676899 -0.089438938 0.26131549
-0.048071623 -0.089877576 0.26259708
-0.046304327 -0.090036273 0.26306075
-0.044686276 -0.09051048 0.26444623
-0.043208025 -0.091321379 0.26681548
-0.041658204 -0.09204787 0.26893809
-0.039902426 -0.092366807 0.26986992
-0.038001154 -0.092363998 0.26986173
-0.036002222 -0.092111029 0.2691226
-0.034233216 -0.092450902 0.27011561
-0.032684688 -0.093461193 0.27306741
-0.031081067 -0.094430409 0.27589917
-0.029304281 -0.094967656 0.27746889
-0.027352743 -0.094974883 0.27748999
-0.025464166 -0.095218651 0.27820221
-0.023782397 -0.096340813 0.28148085
-0.022198023 -0.098097406 0.28661314
-0.020450136 -0.099410467 0.29044953
-0.018544763 -0.10016471 0.2926532
-0.016534522 -0.10047027 0.29354596
-0.014556875 -0.1010895 0.2953552
-0.012641834 -0.10242236 0.29924944
-0.010691664 -0.10394683 0.30370349
-0.0086800009 -0.10548621 0.30820116
-0.0065909196 -0.1067974 0.31203207
-0.004444059 -0.10801541 0.31559077
-0.0022338619 -0.1085906 0.31727132
0 -0.10930372 0.31935483
0.0022751009 -0.11059527 0.3231284
0.0046161585 -0.11219839 0.32781225
0.0070242728 -0.11381933 0.3325482
0.0094100265 -0.11435806 0.33412221
0.011939578 -0.11607933 0.33915126
0.014485998 -0.11736352 0.34290329
0.017092995 -0.11870147 0.34681243
0.019663241 -0.1194816 0.34909177
0.022367083 -0.12080997 0.35297287
0.025115788 -0.12209075 0.35671496
0.027890993 -0.12325575 0.36011878
0.030581683 -0.12388424 0.36195502
0.033481069 -0.12519641 0.36578882
0.036494646 -0.12671763 0.37023339
0.03993969 -0.12943429 0.37817073
0.043258775 -0.13142869 0.38399777
0.046824176 -0.13389277 0.39119717
0.050190538 -0.13554557 0.3960261
0.053700842 -0.13739263 0.40142277
0.05702449 -0.13860132 0.40495422
0.060173567 -0.13929078 0.40696862
0.063245155 -0.13974635 0.40829968
0.065942399 -0.13937113 0.40720341
0.068333395 -0.13840689 0.40438613
0.069199592 -0.13455489 0.39313167
0.070398964 -0.13162211 0.38456288
0.071468607 -0.12867302 0.37594649
0.073057696 -0.12683639 0.37058038
0.074325539 -0.12458794 0.36401105
0.077083714 -0.12490427 0.36493528
0.08064115 -0.12645353 0.36946177
0.083964504 -0.12755036 0.37266642
0.085812941 -0.12640806 0.36932895
0.086603142 -0.12381996 0.3617672
0.086991213 -0.12082123 0.35300577
0.089733519 -0.12116805 0.35401911
0.092136107 -0.1210498 0.35367361
0.093857914 -0.12006689 0.3508018
0.095352106 -0.11885066 0.34724832
0.096661627 -0.11747082 0.34321681
0.099703789 -0.11821259 0.34538406
0.10179012 -0.11781273 0.34421581
0.10518761 -0.11891374 0.34743261
0.10504188 -0.11605015 0.339066
0.09729097 -0.10509836 0.30706796
0.12175483 -0.12866613 0.37592641
0.11687362 -0.12088004 0.35317758
0.12718271 -0.12880203 0.37632349
0.063479662 -0.062975906 0.18399796
0.17128098 -0.16652332 0.48653448
0.093777083 -0.089384556 0.26115662
0.17019874 -0.15910687 0.46486568
0.23852654 -0.21877453 0.63919783
0.13633922 -0.12273347 0.35859278
0.16655922 -0.14721155 0.4301109
0.2365191 -0.20531189 0.59986383
0.30536431 -0.260423 0.76088303
0.13553178 -0.11359234 0.33188501
0.25728986 -0.21198572 0.61936283
0.29725316 -0.24083032 0.70363867
0.14820699 -0.11810677 0.34507489
0.46956864 -0.3681657 1.075677
0.30136746 -0.23253684 0.67940742
0.45201394 -0.34332687 1.0031049
0.37958822 -0.28388032 0.82941872
0.27008203 -0.19892423 0.58120084
0.20373581 -0.1478184 0.43188393
0.27975059 -0.19998528 0.58430094
0.25793716 -0.18171917 0.53093249
1.3585989 -0.94347233 2.7565615
0.74780184 -0.51199305 1.4959003
1.8264697 -1.23315 3.6029186
0.62130743 -0.41373244 1.2088103
