# .PCD v0.7 - Point Cloud Data file format
VERSION 0.7
FIELDS x y z
SIZE 4 4 4
TYPE F F F
COUNT 1 1 1
WIDTH 1400
HEIGHT 1
VIEWPOINT 0 0 0 1 0 0 0
POINTS 1400
DATA ascii
-0.040399432 0.028552065 0.14712454
-0.038733881 0.02809534 0.1447711
-0.037004378 0.027566286 0.14204498
-0.035509817 0.02718772 0.14009428
-0.034588594 0.027239038 0.1403587
-0.03419837 0.02772384 0.14285682
-0.03403658 0.028428823 0.1464895
-0.033492465 0.028848549 0.14865229
-0.032653514 0.029033216 0.14960384
-0.031521078 0.028960543 0.14922936
-0.03737459 0.035522647 0.1830429
-0.12738824 0.12540019 0.64616847
-0.077254601 0.07886558 0.40638259
-0.082917675 0.087902389 0.45294794
-0.78200847 0.86218077 4.4426894
-0.063750677 0.073215067 0.37726632
-0.76981056 0.92253518 4.7536864
-0.60302365 0.75550705 3.8930151
-0.6034255 0.79201102 4.0811152
-0.023963973 0.03302598 0.17017797
-0.5293659 0.7679435 3.9570985
-0.076175921 0.11664661 0.6010626
-0.52719271 0.85476625 4.4044833
-0.0056872289 0.0097973263 0.050484166
-0.018519238 0.034029748 0.17535023
-0.016709615 0.032897681 0.16951685
-0.015217827 0.032265335 0.16625847
-0.013911894 0.03195449 0.16465673
-0.01271737 0.03186629 0.16420224
-0.011538796 0.031804413 0.1638834
-0.010384022 0.031801675 0.16386929
-0.009265529 0.031923249 0.16449577
-0.0081881043 0.032241274 0.16613449
-0.0070844167 0.032544658 0.16769779
-0.0059450022 0.032772448 0.16887155
-0.0048330706 0.03330351 0.17160803
-0.0037343989 0.034310445 0.1767966
-0.0026774916 0.036899887 0.19013962
-0.0025382584 0.069962077 0.36050418
0 0.037169393 0.19152835
0.0012816252 0.035325468 0.18202688
0.0024928253 0.034354903 0.17702571
0.0036520234 0.033553604 0.17289671
0.0048389877 0.033344284 0.17181814
0.0060450905 0.033324197 0.17171462
0.007302118 0.033544742 0.17285107
0.0085474597 0.033656262 0.1734257
0.0097496975 0.033591393 0.17309146
0.010914882 0.033427458 0.17224672
0.012046854 0.033204772 0.17109925
0.013162012 0.032980442 0.16994332
0.014278696 0.032797005 0.16899809
0.015435925 0.032727756 0.16864124
0.016621431 0.032724068 0.16862226
0.017957732 0.032997962 0.17003359
0.019471047 0.033542562 0.17283982
0.021204559 0.034380104 0.17715557
0.022919919 0.035096798 0.18084857
0.024449134 0.035468008 0.18276136
0.025639769 0.035335481 0.18207847
0.026587868 0.034897242 0.1798203
0.027411781 0.034343258 0.17696567
0.028455734 0.034101136 0.17571807
0.029759211 0.034177244 0.17611025
0.031195899 0.034394134 0.17722785
0.032631356 0.034593035 0.17825276
0.034056205 0.034766372 0.17914595
0.035832684 0.03527347 0.18175896
0.038064994 0.036178842 0.18642418
0.041267395 0.03791514 0.19537108
0.12569492 0.1117591 0.57587802
0.19528536 0.16820799 0.86675072
0.11734843 0.098014474 0.505054
0.11954006 0.096908405 0.4993546
0.1622424 0.12776832 0.65837115
0.31992635 0.24494825 1.262182
0.020342451 0.015154039 0.078086518
0.1170818 0.084924437 0.43760297
0.21165124 0.14958328 0.77078044
1.2023845 0.82853377 4.2693114
1.3569531 0.91223735 4.7006235
1.3748062 0.90223366 4.6490755
0.069717415 0.044688899 0.23027526
0.051731028 0.032405995 0.16698325
0.053670518 0.032873817 0.16939388
0.055408973 0.033200849 0.17107902
0.057162795 0.033522971 0.17273888
0.058026124 0.033320323 0.17169465
0.058574967 0.032949049 0.16978154
0.058878284 0.032457273 0.1672475
0.059733607 0.032283116 0.16635008
0.060749009 0.032200508 0.16592443
0.062126648 0.032309402 0.16648555
0.06308572 0.032200616 0.16592498
0.064329915 0.032238673 0.16612108
0.077785492 0.038285777 0.19728091
0.35888988 0.17354545 0.89425385
0.13041675 0.061977249 0.31935951
0.25316423 0.11827072 0.60943139
1.851014 0.85032576 4.3816018
0.30806434 0.13919975 0.71727562
0.72191578 0.32093844 1.653748
0.14497562 0.063428044 0.32683527
0.05893911 0.025383441 0.13079709
0.53433055 0.22658101 1.1675382
0.028838631 0.012043634 0.062059056
0.10797306 0.044418868 0.22888383
0.76053053 0.30827239 1.5884817
0.52925432 0.21141809 1.089406
0.30493799 0.12007162 0.61871117
0.3288447 0.12766133 0.65781981
0.59186584 0.22657795 1.1675224
0.47855729 0.1806916 0.93107682
1.781691 0.66363233 3.4195983
1.3168993 0.48396972 2.493824
0.032313254 0.011719094 0.06038674
1.2754045 0.45654547 2.3525109
2.2759426 0.80425465 4.1442046
1.0037249 0.35019866 1.8045217
0.82386643 0.28385314 1.4626529
0.5789156 0.19699587 1.0150903
0.38411927 0.12911572 0.66531408
-0.1152233 0.040138904 0.19957262
-0.12903689 0.045505922 0.22625771
-0.12167788 0.043447092 0.21602108
-0.12217289 0.044176042 0.21964547
-0.12369948 0.045301471 0.22524115
-0.12330951 0.045745131 0.22744705
-0.12087745 0.045432929 0.22589478
-0.11655863 0.044393789 0.22072811
-0.11449891 0.044198614 0.21975771
-0.11251377 0.04402728 0.21890582
-0.11274745 0.044731487 0.22240716
-0.11164289 0.044917107 0.22333007
-0.11202426 0.045714408 0.2272943
-0.11190937 0.046329372 0.23035192
-0.11132137 0.046763677 0.23251131
-0.12440938 0.053041693 0.26372591
-0.10894499 0.047152244 0.23444328
-0.098119035 0.043120019 0.21439487
-0.085973889 0.038372993 0.19079241
-0.13581195 0.061579548 0.30617654
-0.10277144 0.047349978 0.23542643
-0.031436346 0.014721135 0.073194206
-0.16060916 0.076464191 0.38018373
-0.16288359 0.078861378 0.39210269
-0.088008627 0.043344729 0.21551213
-0.097637042 0.048930407 0.24328439
-0.094326302 0.048115369 0.23923199
-0.075411856 0.039166607 0.1947383
-0.084503837 0.044701464 0.22225788
-0.058246545 0.03139304 0.15608774
-0.12267698 0.067390516 0.33506897
-0.020398114 0.011425071 0.05680602
-0.12399132 0.070837028 0.35220519
-0.055140331 0.032144923 0.15982613
-0.19405338 0.11548325 0.57418841
-1.4954046 0.90886605 4.5189271
-0.34448451 0.21391976 1.0636195
-0.16105808 0.10223723 0.50832856
-0.18810095 0.12211734 0.6071735
-1.3779563 0.91538966 4.551363
-0.1241349 0.084427446 0.41977742
-0.043194994 0.030094603 0.14963184
-0.041972563 0.029973989 0.14903216
-0.040587768 0.029728269 0.14781041
-0.03891563 0.029253613 0.14545041
-0.037183449 0.028706944 0.14273234
-0.035659201 0.0282949 0.14068364
-0.034531966 0.028183332 0.14012891
-0.034043819 0.028602131 0.14221121
-0.034006182 0.029436283 0.14635865
-0.033791333 0.030164378 0.14997879
-0.033200383 0.030592885 0.15210932
-0.031697158 0.030181313 0.15006298
-0.21287689 0.20968606 1.0425694
-0.87884039 0.89658403 4.4578605
-0.13115682 0.1387606 0.68992454
-0.017927719 0.019696575 0.097932354
-0.02173559 0.024835361 0.12348264
-0.74495888 0.88666612 4.4085479
-0.77109212 0.95767355 4.7616005
-0.092633873 0.12027799 0.59802812
-0.048988041 0.066636138 0.33131817
-0.01669186 0.023840412 0.1185357
-0.080232114 0.12062398 0.59974837
-0.054207064 0.086024553 0.42771831
-0.01975828 0.033200093 0.16507249
-0.020825876 0.037181109 0.18486631
-0.018458724 0.035151955 0.17477725
-0.016544072 0.033756189 0.16783744
-0.015092556 0.033163358 0.16488986
-0.013803842 0.032859258 0.16337787
-0.012609011 0.03274367 0.16280316
-0.011418366 0.032616924 0.16217296
-0.010296026 0.032678805 0.16248064
-0.009218948 0.032917771 0.16366878
-0.0081551112 0.03327905 0.16546507
-0.0070546754 0.033586506 0.16699377
-0.0059135593 0.033784539 0.16797839
-0.0047988193 0.034269948 0.17039187
-0.0037009504 0.035239607 0.17521307
-0.00022183942 0.0031684567 0.015753722
-0.0014989472 0.042817898 0.21289271
0 0.037149545 0.18470937
0.0012590879 0.035966247 0.17882594
0.0024732163 0.035324104 0.17563318
0.0036539007 0.034791607 0.1729856
0.0048394897 0.034560386 0.17183596
0.0060234186 0.034412172 0.17109902
0.0072724503 0.034623306 0.17214879
0.0085147126 0.034746498 0.17276129
0.0097267684 0.034731023 0.17268437
0.010882347 0.034539744 0.1717333
0.01194363 0.034117356 0.16963318
0.012999477 0.033757653 0.16784471
0.01411546 0.033601049 0.16706608
0.015276148 0.033566769 0.16689563
0.016472027 0.033609189 0.16710654
0.01782638 0.033947747 0.16878988
0.019345207 0.034537625 0.17172277
0.021104109 0.035461504 0.17631634
0.022842307 0.036249872 0.18023616
0.024382884 0.036658145 0.18226612
0.025615042 0.036585093 0.18190289
0.026652703 0.036254425 0.18025878
0.027546294 0.035766754 0.17783408
0.028573798 0.035487808 0.17644714
0.029714622 0.035366982 0.17584638
0.03118539 0.035632823 0.17716815
0.032956313 0.036207981 0.18002787
0.035088759 0.037123017 0.18457747
0.037410252 0.038165562 0.18976106
0.040415697 0.039809905 0.19793682
0.076131515 0.0724907 0.36042732
0.029469218 0.027154759 0.1350148
0.03734481 0.033336446 0.16575046
0.13342115 0.11549144 0.57422918
0.19119246 0.16063157 0.79866815
0.21333116 0.17411064 0.86568666
0.92048311 0.7303859 3.6315145
0.20400031 0.1574955 0.78307533
0.0091732899 0.0068957354 0.034285937
0.17062254 0.12497147 0.6213643
1.3178113 0.94109237 4.6791577
1.336725 0.93131644 4.6305509
0.22314692 0.15176816 0.75459874
0.071357757 0.047403648 0.23569329
0.053135827 0.034496404 0.17151782
0.054629479 0.034677964 0.17242055
0.055651437 0.034558713 0.17182763
0.056913853 0.034590684 0.17198659
0.057656813 0.034312189 0.1706019
0.058485232 0.034094885 0.16952144
0.058994681 0.033704035 0.16757813
0.059790716 0.033489034 0.16650914
0.060661405 0.03332331 0.16568515
0.061890744 0.033357147 0.16585338
0.062780447 0.033210065 0.16512208
0.0637291 0.033098944 0.16456957
0.087284684 0.044523478 0.22137292
0.61235005 0.30687672 1.5258062
0.8466326 0.41697118 2.0732012
1.1484802 0.55604577 2.7646871
0.67550284 0.32159919 1.599007
0.47711471 0.22342514 1.1108807
0.13337289 0.061449014 0.30552751
0.47063383 0.21339373 1.0610042
0.051650021 0.023053113 0.11462121
1.2061424 0.5300591 2.6354799
1.6532713 0.71554881 3.5577438
2.0480437 0.87317944 4.3414912
0.13647576 0.057330489 0.28505
0.61705047 0.25545278 1.2701238
0.061272137 0.025003687 0.12431956
0.3074072 0.12367865 0.61493635
0.59122938 0.23456465 1.166267
0.6808216 0.26640937 1.3246006
0.44116887 0.17029904 0.84673524
0.30496636 0.11615282 0.57751751
0.22087188 0.083016776 0.41276354
1.0343213 0.38371059 1.907828
0.31992888 0.117165 0.58255017
0.69280213 0.25050777 1.2455369
0.10962264 0.039142568 0.19461878
0.96397775 0.3399547 1.6902716
1.53453 0.53456509 2.6578841
-0.10317853 0.037204176 0.17871046
-0.14872138 0.054288093 0.26077315
-0.12239467 0.045236472 0.21729362
-0.10298853 0.03854588 0.18515533
-0.12255345 0.046456568 0.22315437
-0.12131497 0.046584334 0.22376809
-0.11793187 0.045881096 0.22039008
-0.14069018 0.055464961 0.26642624
-0.11257038 0.044978876 0.21605626
-0.11159685 0.045200713 0.21712187
-0.11098593 0.045577619 0.21893233
-0.11363433 0.047322471 0.22731376
-0.1083727 0.045776024 0.21988538
-0.12035803 0.051575352 0.24774247
-0.087591618 0.038086392 0.1829482
-0.12431134 0.054859541 0.2635181
-0.087209016 0.03906912 0.18766874
-0.066218361 0.030121824 0.14469033
-0.0094401827 0.0043613063 0.020949559
-0.054648843 0.025648184 0.12320118
-0.12803796 0.061060909 0.29330641
-0.087898456 0.042605691 0.20465666
-0.099888958 0.049224626 0.23645075
-0.15096721 0.075656593 0.36341688
-0.13405171 0.068337739 0.32826069
-0.045878816 0.023798717 0.11431726
-0.12207346 0.06445393 0.30960479
-0.011296998 0.0060731862 0.029172581
-1.7361506 0.95062637 4.5663385
-1.5116839 0.84333736 4.0509753
-1.5603648 0.8872357 4.2618413
-1.6279988 0.94384378 4.5337586
-1.6096126 0.95184785 4.5722065
-1.150973 0.69452083 3.3361342
-1.4770231 0.90983421 4.3703933
-1.0583869 0.66582912 3.1983137
-1.4033592 0.90204298 4.3329682
-1.4115781 0.92748863 4.4551969
-1.1534634 0.7751171 3.7232792
-1.3540157 0.93104672 4.4722877
-0.17875403 0.12584117 0.60447872
-0.043134037 0.031106593 0.14942069
-0.041382354 0.030589435 0.14693651
-0.040196098 0.030474424 0.14638406
-0.038904984 0.03027177 0.14541061
-0.037689526 0.030118626 0.14467497
-0.036367632 0.029869555 0.14347857
-0.035021935 0.029586136 0.14211717
-0.034113023 0.029665897 0.1425003
-0.03389062 0.030365594 0.14586128
-0.033891518 0.031315349 0.15042345
-0.097778738 0.093260765 0.44797856
-0.13433172 0.1323956 0.63596296
-0.96470594 0.98358792 4.7246695
-0.90750474 0.95831227 4.6032581
-0.87696618 0.96036267 4.6131072
-0.86754119 0.98658144 4.7390494
-0.10859743 0.12843865 0.61695576
-0.7707628 0.94956726 4.5612512
-0.74177396 0.95358622 4.5805564
-0.11427172 0.15357916 0.73771828
-0.64379334 0.90644902 4.3541327
-0.64390349 0.95193428 4.5726213
-0.55660379 0.86618125 4.1607065
-0.018443389 0.030295938 0.14552669
-0.022684919 0.039455228 0.18952338
-0.020119954 0.037181184 0.17860001
-0.018040884 0.035561722 0.17082092
-0.016233971 0.034285694 0.16469152
-0.014893703 0.033874705 0.16271733
-0.013654362 0.033643905 0.16160867
-0.012479715 0.033545032 0.16113374
-0.011309485 0.033439443 0.16062655
-0.010231909 0.033614788 0.16146882
-0.0092069265 0.034028348 0.16345537
-0.0081645306 0.034486517 0.16565616
-0.0070700413 0.034840699 0.1673575
-0.0059260954 0.035044096 0.1683345
-0.0047955769 0.035448432 0.17027675
-0.0063914065 0.062992871 0.30258659
-0.001981084 0.029287959 0.14068486
-0.0012823474 0.037915945 0.18212944
0 0.037160441 0.17850037
0.0012361982 0.036551423 0.17557496
0.0024499802 0.036220029 0.17398311
0.0036635888 0.036107853 0.17344427
0.004861908 0.035938747 0.17263198
0.0060424143 0.035731949 0.17163862
0.0072624781 0.035789017 0.17191274
0.0084791593 0.035815496 0.17203991
0.0096704764 0.035741605 0.17168501
0.01082786 0.035572659 0.17087345
0.011855992 0.035055336 0.16838849
0.012869821 0.034593623 0.16617066
0.013953952 0.034382083 0.16515452
0.015064229 0.034262557 0.16458037
0.016219519 0.034255173 0.16454491
0.017568961 0.03463148 0.16635248
0.019123143 0.035339098 0.16975155
0.020937918 0.036416717 0.17492789
0.022737125 0.037349027 0.17940623
0.024268737 0.037766762 0.18141286
0.025510376 0.037714042 0.18115959
0.026583066 0.037428465 0.17978781
0.02750238 0.03696271 0.17755057
0.028501611 0.036640197 0.17600138
0.029563598 0.036421873 0.17495266
0.031099405 0.0367814 0.17667967
0.033194102 0.037748855 0.18132682
0.035929006 0.03934573 0.18899743
0.038659718 0.040824123 0.19609888
0.061333068 0.062533528 0.30038011
0.056420065 0.055606879 0.26710793
0.57981795 0.55302685 2.6564672
0.16995138 0.157033 0.75430882
0.012133331 0.010871321 0.052220445
0.19082576 0.16594887 0.79713631
0.37102592 0.31343853 1.5056038
0.24378936 0.20022967 0.96180433
0.14009148 0.11195054 0.53775501
0.1280946 0.099669755 0.47876421
1.254434 0.95104134 4.5683322
0.12637584 0.093415789 0.44872323
0.9996137 0.72088259 3.4627633
0.18851589 0.13271344 0.63748962
0.070590444 0.048539314 0.23315886
0.048738323 0.03275172 0.15732306
0.055560142 0.036506236 0.17535789
0.055927999 0.03594907 0.17268154
0.0567188 0.035681684 0.17139716
0.057509385 0.035425309 0.17016567
0.058762681 0.035458613 0.17032564
0.059693161 0.035299677 0.16956219
0.060471304 0.035058666 0.16840447
0.061163153 0.03477785 0.16705558
0.062394831 0.034808788 0.16720422
0.063526005 0.034783557 0.167083
0.064828821 0.034851514 0.16740943
0.066190623 0.034948185 0.1678738
1.7096963 0.88687068 4.260088
1.7455555 0.88986045 4.2744493
1.7949632 0.89953846 4.3209381
0.065339535 0.032198895 0.15466757
0.33670592 0.16320638 0.78396273
1.4649527 0.69863141 3.3558798
1.2832723 0.60227448 2.8930285
0.02804552 0.012956859 0.062238339
0.69614601 0.31666729 1.5211129
1.9548907 0.87577945 4.2068114
1.1786654 0.520154 2.4985626
1.3221759 0.57490557 2.7615621
1.8745762 0.80328608 3.8585889
1.3899404 0.58710307 2.8201525
0.051309712 0.021367682 0.10263978
1.4863935 0.61040419 2.9320798
1.2119424 0.49087995 2.3579445
1.0927633 0.43662697 2.0973399
0.18293521 0.072119422 0.34642604
0.5014447 0.19508579 0.93709558
0.24797922 0.095222764 0.45740303
2.1135874 0.80120164 3.8485763
0.9789896 0.3664099 1.760052
2.2254336 0.82250941 3.9509282
0.45112231 0.16467418 0.7910133
0.68395901 0.24662234 1.1846517
-0.1925769 0.071793377 0.33355299
-0.097821981 0.036918622 0.17152441
-0.11137344 0.042558439 0.19772705
-0.15966883 0.061785571 0.2870566
-0.095786817 0.037540942 0.17441572
-0.15856701 0.062952958 0.29248026
-0.12638438 0.050836291 0.23618609
-0.070851043 0.028878789 0.13417125
-0.062499601 0.025819007 0.11995546
-0.088384867 0.037012555 0.17196083
-0.13153201 0.055846121 0.25946182
-0.13428214 0.057816789 0.26861757
-0.12350328 0.053935472 0.25058493
-0.052762624 0.023376061 0.10860549
-0.1978741 0.088955753 0.41328967
-0.12465054 0.056873951 0.26423714
-0.14407426 0.066732362 0.31003943
-0.17169604 0.080749705 0.37516418
-0.17570001 0.083923936 0.38991171
-0.078758568 0.038216531 0.1775545
-0.13651915 0.067312524 0.3127349
-0.085108705 0.042651881 0.19816121
-0.074920408 0.038171828 0.17734681
-0.14110141 0.073109418 0.33966735
-0.16811384 0.088607304 0.41167068
-0.20017341 0.10735581 0.49877656
-0.3433705 0.1874429 0.87086219
-1.6510668 0.91768998 4.2635999
-0.020900089 0.011831734 0.054970395
-0.094729982 0.054639358 0.2538552
-1.605635 0.94392502 4.385488
-0.19276166 0.11554324 0.5368154
-0.31425789 0.19213665 0.89266944
-0.04412109 0.027526068 0.12788647
-1.5427829 0.9825567 4.564971
-0.17024931 0.11073413 0.51447225
-0.18624572 0.12377203 0.57504648
-0.21452378 0.14573269 0.67707598
-0.12858699 0.089338444 0.41506761
-0.25039631 0.17801374 0.8270542
-0.12320281 0.08967375 0.41662547
-0.12392092 0.092396349 0.42927465
-0.041316677 0.031576168 0.14670329
-0.039858088 0.031242507 0.14515311
-0.038872123 0.031271499 0.14528781
-0.038207307 0.031567395 0.14666253
-0.037351154 0.031717252 0.14735878
-0.036158741 0.031581976 0.14673027
-0.034787897 0.031278312 0.14531945
-0.059122745 0.054768983 0.25445744
-0.13272029 0.12678894 0.58906311
-1.0240058 1.0097985 4.6915374
-0.051837981 0.052822731 0.24541511
-0.037534513 0.039566424 0.18382613
-0.042364236 0.046252519 0.21488981
-0.81972867 0.92811197 4.3120208
-0.14325507 0.16843435 0.78254825
-0.083974212 0.10268334 0.47706813
-0.046703812 0.059488788 0.27638569
-0.12645312 0.16807215 0.78086543
-0.059809454 0.083107688 0.3861194
-0.053200554 0.077444553 0.35980844
-0.06151614 0.094027109 0.4368512
-0.008209046 0.013207879 0.06136398
-0.026535287 0.045065612 0.20937546
-0.021777175 0.03916036 0.18193956
-0.01957763 0.037405387 0.17378592
-0.017684668 0.036041234 0.16744806
-0.016042965 0.035030846 0.16275378
-0.014785986 0.034769703 0.16154049
-0.013580159 0.034595348 0.16073044
-0.012380266 0.034405772 0.15984967
-0.011228884 0.034326587 0.15948179
-0.010185192 0.03459559 0.16073157
-0.0092349108 0.035288788 0.16395217
-0.0082214298 0.035904039 0.16681065
-0.0071375687 0.036365792 0.16895597
-0.0059933737 0.036643367 0.17024559
-0.0079479627 0.06074211 0.28220865
-0.0099039152 0.10092057 0.4688783
-0.0030292806 0.046302404 0.2151216
-0.0012388171 0.037870515 0.17594692
0 0.037482992 0.17414649
0.0012194656 0.037278943 0.17319846
0.0024339552 0.037202884 0.1728451
0.0036707676 0.037404999 0.17378414
0.0048868652 0.037347749 0.17351814
0.0060625384 0.03706624 0.17221025
0.0072402144 0.036888771 0.17138572
0.0084189996 0.036766853 0.1708193
0.0096383449 0.036830407 0.17111455
0.010851902 0.036860172 0.17125286
0.011909322 0.036406681 0.16914593
0.012873157 0.035775557 0.16621371
0.013870522 0.035335042 0.16416708
0.014883276 0.034998484 0.16260341
0.016010707 0.034960411 0.16242653
0.017331313 0.035321098 0.1641023
0.018881213 0.036074799 0.167604
0.020666128 0.037162442 0.17265719
0.022435434 0.03810272 0.17702575
0.023996409 0.038608834 0.17937714
0.025311841 0.038689021 0.17974971
0.026446864 0.038498953 0.17886665
0.027360486 0.038018517 0.17663454
0.028343756 0.037672427 0.1750266
0.029490216 0.037563041 0.17451838
0.031194275 0.038144235 0.17721863
0.033617996 0.039526876 0.1836424
0.036926914 0.041809335 0.19424674
0.041191291 0.044971921 0.20894012
0.16187732 0.17064047 0.79279786
0.10051325 0.10242267 0.47585708
0.0019101669 0.0018836651 0.008751533
0.04409511 0.042124476 0.19571088
0.24260876 0.22474319 1.0441599
0.032092668 0.02885499 0.13406067
0.061791576 0.053970356 0.250747
0.27640164 0.23471031 1.0904672
0.35978857 0.29726216 1.381084
0.19691329 0.15841104 0.7359798
0.073808134 0.057854034 0.2687906
0.37726858 0.28832656 1.3395691
1.185387 0.88383323 4.1063008
0.32387868 0.23573665 1.0952356
0.10585247 0.075253479 0.34962866
0.047677726 0.033125076 0.15389955
0.056185938 0.038168859 0.17733303
0.056199651 0.037348211 0.1735203
0.056609966 0.036820445 0.17106828
0.057448398 0.036587331 0.16998522
0.058800705 0.036684319 0.17043583
0.059910964 0.036629446 0.17018089
0.060548425 0.036293324 0.16861926
0.061092231 0.035915066 0.16686186
0.06227126 0.035917472 0.16687307
0.063649058 0.036032323 0.16740665
0.065183088 0.03622983 0.16832428
0.06656234 0.036335789 0.16881655
0.30871338 0.16556732 0.76922804
0.15696852 0.082732968 0.38437846
0.26735729 0.13852689 0.64359772
0.10938089 0.055729382 0.25891945
0.43074235 0.21586476 1.0029106
0.93826526 0.4626238 2.1493564
0.18359785 0.08908838 0.4139058
0.84432989 0.40329817 1.8737285
0.5739823 0.26994741 1.2541791
0.37116891 0.17191814 0.79873395
0.16782157 0.076571479 0.35575211
0.31323183 0.14081566 0.65423149
0.94547403 0.41888475 1.9461441
0.54618186 0.23852465 1.1081887
0.20875902 0.0898837 0.41760087
0.046297438 0.019657057 0.091326945
1.0477803 0.43877453 2.0385523
2.0123687 0.83132315 3.8623388
2.2039223 0.89831579 4.1735873
0.19192912 0.077200711 0.35867554
0.1013366 0.040231816 0.18691754
0.035069969 0.013744685 0.063857995
0.1962267 0.075932026 0.35278124
2.4006538 0.91734689 4.2620058
2.056392 0.77609503 3.6057479
1.0294549 0.38378462 1.7830684
-0.18449138 0.071034111 0.31954846
-0.14956065 0.058295775 0.26224476
-0.14591475 0.057585608 0.25905007
-0.1519669 0.060733266 0.27320987
-0.10817756 0.043787211 0.19697769
-0.14203988 0.058240395 0.26199564
-0.059710789 0.02480527 0.11158703
-0.16545296 0.069649495 0.31331974
-0.12346807 0.052677806 0.23697221
-0.066291593 0.028670836 0.12897635
-0.16015834 0.070229858 0.31593049
-0.067575343 0.030049322 0.13517751
-0.087073475 0.039272867 0.17666981
-2.1162598 0.96833277 4.3560653
-0.099281862 0.046096265 0.20736501
-0.20047563 0.09446948 0.42497295
-0.071730502 0.034313474 0.15435989
-0.18255939 0.088673845 0.39890116
-0.088582762 0.04369925 0.19658199
-0.13469714 0.067502923 0.30366331
-0.13216294 0.067301191 0.3027558
-1.7386012 0.89985985 4.048038
-0.34334871 0.18067119 0.81275314
-0.014982712 0.0080175772 0.03606724
-1.6418306 0.89372736 4.0204511
-0.072211064 0.039997574 0.17992991
-0.47925094 0.27019647 1.2154844
-0.12153111 0.069763705 0.31383348
-0.18586411 0.10866921 0.48885071
-0.17342879 0.10331183 0.46475044
-0.10925238 0.066333406 0.29840222
-0.503088 0.31144297 1.4010326
-0.19702831 0.12441231 0.55967134
-0.15711619 0.10123475 0.45540661
-1.5242661 1.0025921 4.5101814
-0.12026354 0.080786884 0.3634215
-0.12678762 0.087020941 0.39146549
-0.018151017 0.012734831 0.057287902
-0.081554085 0.058519121 0.26324949
-0.13475308 0.0989407 0.44508681
-0.20733999 0.15586138 0.70114565
-0.11829156 0.091090828 0.40977401
-0.061179768 0.048289482 0.21723124
-0.039698977 0.032138046 0.14457366
-0.038811315 0.032246269 0.14506052
-0.038733479 0.033051375 0.1486823
-0.038400207 0.033677187 0.15149751
-0.037888825 0.034178093 0.15375087
-0.081895903 0.076048039 0.34210369
-0.098611362 0.094344757 0.42441186
-1.0538527 1.0397637 4.6773987
-0.17613766 0.17938878 0.80698419
-0.037206333 0.039156184 0.17614491
-0.94725406 1.0312719 4.6391983
-0.17777908 0.20045982 0.90177274
-0.074036635 0.086574033 0.38945508
-0.12208914 0.14825469 0.6669268
-0.12399167 0.15658754 0.70441234
-0.025441071 0.033467934 0.15055619
-0.061662026 0.084643714 0.38077152
-0.27025124 0.3878375 1.7446951
-0.026015904 0.039113291 0.17595197
-0.35762364 0.56454808 2.5396314
-0.03632905 0.06036777 0.27156568
-0.022961795 0.040275235 0.18117897
-0.021072619 0.03913581 0.17605326
-0.019141281 0.037770759 0.16991256
-0.017373454 0.036567871 0.16450134
-0.0159615 0.035995681 0.16192733
-0.014783236 0.035903014 0.16151045
-0.013588243 0.035750888 0.16082612
-0.012383139 0.035542078 0.15988678
-0.011247248 0.03551003 0.15974261
-0.010237149 0.035912137 0.16155149
-0.009325102 0.036801737 0.16555339
-0.0083399834 0.037615936 0.16921607
-0.0072853058 0.038335513 0.17245311
-0.0050219032 0.031710502 0.14265035
-0.039769083 0.31389928 1.4120824
-0.0061843377 0.065084361 0.29278338
-0.0025082177 0.039594963 0.17811878
-0.0012348548 0.038987074 0.17538416
0 0.038517904 0.17327359
0.0012131168 0.03830076 0.17229676
0.0024228415 0.038247209 0.17205587
0.0036650556 0.038571279 0.1735137
0.0049100141 0.038754981 0.17434008
0.0060942001 0.038481452 0.17310961
0.0072263149 0.0380251 0.1710567
0.0083546769 0.037682209 0.16951419
0.0095894188 0.03784487 0.17024595
0.010885774 0.03818753 0.1717874
0.012019762 0.037949026 0.17071448
0.012921886 0.037088387 0.16684289
0.013834117 0.036397785 0.16373619
0.014766372 0.035862055 0.1613262
0.015896467 0.035849024 0.16126758
0.017219186 0.036243163 0.16304064
0.018776795 0.037051536 0.16667712
0.020466102 0.038009394 0.17098606
0.022155102 0.038860288 0.17481381
0.023730105 0.039432179 0.17738648
0.025156362 0.039712075 0.1786456
0.026358973 0.039629076 0.17827223
0.027247684 0.039103143 0.17590632
0.028147859 0.038638681 0.17381692
0.029352779 0.038613819 0.17370506
0.031094698 0.039269112 0.17665291
0.033426885 0.040590774 0.18259844
0.03628156 0.042425498 0.19085199
0.11659936 0.13147491 0.59144264
0.53488219 0.58232427 2.6195977
0.16343869 0.17200392 0.77376324
0.1430317 0.14567176 0.65530741
0.056671441 0.055913802 0.2515294
0.10952765 0.10478873 0.4713943
0.046764854 0.04342556 0.1953508
1.1640228 1.0500215 4.7235436
0.11238718 0.098564163 0.44339293
0.04257277 0.036327451 0.1634198
1.1605642 0.96425152 4.3377056
0.8550967 0.69223791 3.1140466
0.056068886 0.044255439 0.19908401
0.13351972 0.10281733 0.46252593
1.2354982 0.9287473 4.177989
0.048587091 0.035674442 0.16048223
0.08114925 0.058228631 0.26194271
0.055971801 0.039270055 0.17665716
0.056209039 0.038579188 0.17354928
0.056686699 0.038079221 0.17130017
0.057551388 0.037854653 0.17028995
0.058877505 0.037936572 0.17065845
0.060076118 0.037934694 0.17065001
0.060480285 0.037441082 0.16842948
0.060713161 0.036862455 0.16582653
0.061590303 0.036689449 0.16504826
0.062862687 0.036753941 0.16533838
0.064363658 0.036947306 0.16620822
0.065557674 0.036960706 0.1662685
0.034239341 0.018965108 0.085314929
0.24712139 0.13452007 0.60514134
0.034396321 0.018406225 0.082800783
0.11928642 0.062768891 0.28236717
0.62992704 0.32603571 1.4666784
0.11833961 0.060261946 0.27108961
1.9524359 0.97845525 4.4016013
0.45769703 0.22578904 1.0157167
1.5859987 0.77036077 3.4654841
0.37527734 0.17952013 0.80757511
0.3697046 0.17421471 0.78370851
1.0494657 0.48726371 2.1919658
0.17854734 0.081697546 0.36751813
0.28595695 0.12897554 0.58019918
0.24074969 0.10705628 0.48159486
0.47337538 0.20757636 0.93378663
0.23151055 0.10012734 0.45042491
0.41447663 0.17683698 0.79550487
1.4273793 0.60087323 2.7030408
0.18697622 0.077674329 0.34941959
0.29696694 0.12176491 0.54776198
2.0621195 0.83468759 3.7548597
0.84562027 0.33795044 1.5202771
0.64947504 0.2563169 1.153047
1.2450895 0.48531118 2.1831825
1.641611 0.6320641 2.8433535
-0.17082874 0.067861684 0.29588404
-0.19672731 0.079114698 0.34494835
-0.15159895 0.06172822 0.2691415
-0.13079979 0.05393336 0.23515511
-0.13380359 0.055879269 0.24363947
-0.013997863 0.0059217298 0.025819361
-0.035965048 0.015415037 0.067211173
-0.11374123 0.049400829 0.21539278
-0.072425887 0.031881567 0.13900697
-0.17262027 0.077027611 0.33584848
-0.15526024 0.070243359 0.30626842
-0.077668913 0.035634149 0.15536864
-0.079500698 0.036995631 0.16130483
-0.15107715 0.071322612 0.31097409
-0.10449904 0.050058857 0.21826187
-0.045561422 0.02215134 0.096582167
-0.01533542 0.007568839 0.033000931
-0.10355513 0.051896229 0.22627302
-1.5865641 0.80752355 3.5208874
-0.17446867 0.090209953 0.39332485
-1.881048 0.98829305 4.3090615
-1.7689124 0.94461328 4.1186128
-0.15094633 0.081949987 0.35731053
-1.717828 0.94842988 4.1352539
-1.7121307 0.96158236 4.1925998
-1.4612634 0.83508599 3.6410627
-0.22809309 0.13267884 0.5784936
-0.30830202 0.18259597 0.79613763
-0.10872654 0.065587237 0.28596723
-0.11096065 0.068197846 0.29734975
-0.23477499 0.14707066 0.64124352
-0.072510123 0.046313327 0.20193097
-0.013468388 0.0087745152 0.038257807
-0.1389122 0.092346795 0.40264171
-0.089652158 0.060841098 0.26527357
-0.092909172 0.064392939 0.28075996
-1.4397284 1.0195307 4.4452605
-1.4309257 1.0358148 4.5162611
-0.055178694 0.040850401 0.17811202
-0.21547437 0.16323178 0.71170765
-0.13295676 0.103119 0.44960967
-1.3479999 1.0709854 4.6696086
-0.017277043 0.01406977 0.06134567
-0.055346794 0.046228033 0.20155908
-0.043935012 0.037662115 0.16421077
-0.095114231 0.083737761 0.36510542
-0.16875201 0.15269472 0.66576499
-0.032083888 0.029860461 0.13019474
-1.0704035 1.0255247 4.471395
-0.011427974 0.011280618 0.049184673
-0.10375941 0.10562216 0.46052369
-0.10389089 0.10916749 0.47598168
-0.98488969 1.0694091 4.6627359
-0.083254702 0.093516521 0.40774181
-0.018651033 0.021698136 0.094606146
-0.03606692 0.04351338 0.18972291
-0.072731644 0.09112291 0.39730546
-0.055408556 0.0721962 0.31478301
-0.7432059 1.0087311 4.3981738
-0.087507732 0.12393562 0.54037231
-0.32462704 0.48066178 2.0957358
-0.67713267 1.0503451 4.5796146
-0.046388675 0.075554363 0.32942495
-0.024127007 0.041364465 0.18035342
-0.022408152 0.040551886 0.17681047
-0.020599881 0.039472383 0.17210372
-0.018837109 0.038350567 0.1672125
-0.017305519 0.037581228 0.16385809
-0.016030151 0.037298135 0.16262379
-0.014820052 0.037135046 0.16191269
-0.013593179 0.036899235 0.16088453
-0.012375436 0.036647584 0.15978731
-0.011267852 0.036704447 0.16003522
-0.010282764 0.037217304 0.16227135
-0.0094029903 0.038287196 0.16693619
-0.0084674302 0.039403167 0.17180194
-0.0074747344 0.040580936 0.17693713
-0.0011274436 0.0073451782 0.032025747
-0.13134488 1.069623 4.6636686
-0.0037599574 0.040826228 0.17800663
-0.0024753248 0.040316213 0.1757829
-0.0012238328 0.039865725 0.17381874
0 0.039405871 0.17181374
0.0012021598 0.039159734 0.17074054
0.0023973887 0.03904685 0.17024836
0.0036325601 0.039442927 0.1719753
0.0048961155 0.03987211 0.17384657
0.0061076647 0.039790802 0.17349207
0.0072468119 0.039343525 0.17154188
0.0083743194 0.038969878 0.16991274
0.0096476218 0.039283287 0.17127925
0.0059365081 0.021486521 0.093683481
0.012301667 0.040072042 0.17471831
0.013110979 0.038825762 0.1692844
0.014050481 0.038140599 0.166297
0.014944944 0.037447989 0.16327715
0.016072068 0.037395667 0.16304904
0.017404182 0.037795484 0.16479227
0.019006457 0.038695347 0.16871576
0.020637218 0.039543927 0.17241566
0.022135319 0.040058143 0.1746577
0.023575861 0.040419556 0.1762335
0.024989178 0.04070048 0.17745838
0.026258845 0.040731825 0.17759503
0.027185258 0.040252082 0.1755033
0.028133048 0.039844327 0.17372544
0.029420372 0.03993139 0.17410506
0.031160936 0.040602054 0.17702921
0.033311579 0.041734904 0.18196855
0.047540817 0.057356209 0.25007907
0.064856708 0.075452633 0.3289814
0.035546888 0.039928328 0.1740917
0.97009468 1.0533445 4.5926924
0.038941842 0.040919688 0.17841414
1.0675129 1.0866774 4.7380276
0.27156061 0.26805902 1.1687653
0.018020008 0.017264483 0.075274959
0.2064293 0.19212367 0.83767933
0.14798366 0.13390253 0.5838291
0.98085815 0.86353916 3.7651212
0.049954206 0.04282191 0.18670802
0.13767286 0.11499032 0.50136983
0.037281353 0.03036052 0.13237505
0.15444702 0.1227081 0.53502017
0.63375825 0.49153209 2.1431315
0.12960297 0.098180234 0.42807612
1.4355831 1.0628041 4.6339374
0.055522464 0.040191457 0.17523897
0.056162935 0.039771274 0.17340693
0.056865789 0.039412208 0.17184135
0.057840534 0.039252613 0.17114551
0.059149638 0.039321814 0.17144722
0.060285438 0.039275341 0.17124462
0.060556203 0.038678173 0.1686409
0.060470097 0.037880424 0.16516264
0.061072603 0.03753601 0.16366093
0.062010489 0.037406661 0.16309696
0.063168086 0.037412141 0.16312087
0.063654847 0.037027214 0.16144253
0.038807526 0.02217781 0.096697576
1.0214691 0.57368672 2.5013342
1.8376914 1.0146077 4.4237957
1.4347851 0.77895647 3.3963318
0.43404925 0.23178574 1.0106101
0.20793833 0.10924974 0.47634032
0.018767314 0.0097037405 0.042309321
0.30692321 0.15621665 0.68112093
1.7779732 0.89102399 3.884958
0.15680523 0.077391654 0.33743575
0.22314899 0.10849199 0.47303644
0.17509805 0.083878361 0.36571842
2.1299484 1.0055358 4.3842416
0.51756716 0.24084975 1.0501301
0.18844102 0.086455896 0.37695679
1.6513398 0.7471047 3.2574549
0.31514472 0.1406257 0.61314285
2.0610399 0.90726095 3.9557528
0.29753035 0.1292253 0.56343585
0.79752195 0.34182718 1.4904023
1.9331002 0.8177889 3.5656452
0.26430666 0.11038017 0.48126912
1.7346559 0.71525973 3.1186073
2.2406421 0.91234702 3.9779284
1.966082 0.79066795 3.4473951
2.3366611 0.92823815 4.0472155
-0.15077068 0.061736509 0.26114249
-0.23484816 0.097351156 0.41179076
-0.19307618 0.081035942 0.34277818
-0.091087043 0.03871404 0.16375855
-0.18375917 0.079103082 0.33460227
-0.042711649 0.01862493 0.078782566
-0.052835196 0.023342572 0.09873797
-0.075794056 0.033932269 0.14353187
-0.088849507 0.040314596 0.17052881
-0.050721448 0.023329625 0.098683201
-0.10668372 0.049751326 0.21044575
-0.20881706 0.098752163 0.41771698
-0.063006684 0.030222304 0.12783891
-0.029699154 0.014452201 0.061132122
-0.098586194 0.048679508 0.20591201
-2.0517843 1.0282433 4.3494205
-2.0340984 1.0348252 4.3772612
-2.0248504 1.0459685 4.424397
-1.9260938 1.0105003 4.2743683
-0.10456156 0.05572762 0.23572518
-0.30534044 0.16536045 0.69946682
-1.9192878 1.0564507 4.4687366
-0.37764215 0.21133342 0.89393038
-0.31679416 0.18028688 0.76260495
-0.22786871 0.13191545 0.55799609
-0.34069911 0.20069437 0.84892762
-0.40541679 0.24308194 1.0282249
-1.6297778 0.99495786 4.2086244
-0.16197659 0.10071577 0.42602292
-0.14251301 0.09028542 0.38190305
-0.22764549 0.14699233 0.62177056
-0.12197416 0.0803039 0.33968168
-0.26007962 0.1746527 0.73877257
-0.073680758 0.050489027 0.21356618
-0.13735649 0.09608309 0.40642691
-0.28837258 0.20601322 0.87142611
-0.1104978 0.080655649 0.34116957
-0.11807616 0.088102601 0.37266979
-0.09031707 0.06892173 0.29153565
-0.11817861 0.092280395 0.39034167
-0.34002277 0.27183017 1.1498288
-1.3144542 1.0764666 4.5534024
-1.1536465 0.96839327 4.0962577
-0.89144605 0.76748425 3.2464218
-0.20268938 0.17909619 0.75756842
-0.1147085 0.10409572 0.44031996
-0.052794375 0.049240693 0.20828578
-0.15402314 0.14776002 0.62501788
-0.13999149 0.13824892 0.58478636
-0.19395845 0.19734848 0.83477467
-0.10441773 0.10956283 0.46344557
-1.0340763 1.1200306 4.7376761
-1.0060016 1.1259429 4.7626853
-0.17850707 0.20667903 0.87424242
-0.0932988 0.11188117 0.47325203
-0.087298773 0.10856339 0.45921797
-0.10052691 0.1298219 0.54914045
-0.21835232 0.29326266 1.2404871
-0.078723572 0.11013682 0.46587351
-0.13969962 0.20394187 0.8626644
-0.18326528 0.2797026 1.1831287
-0.017898465 0.028617747 0.12105171
-0.049797684 0.083602287 0.3536337
-0.023430003 0.041405473 0.17514318
-0.021866774 0.040789764 0.17253877
-0.020206161 0.039909277 0.16881435
-0.018586291 0.039004233 0.16498604
-0.017183654 0.038464781 0.16270418
-0.015978757 0.038322512 0.1621024
-0.014769191 0.038146291 0.161357
-0.013516379 0.037819702 0.15997553
-0.012369678 0.037757628 0.15971297
-0.011298019 0.037935104 0.16046368
-0.010360978 0.038654249 0.16350563
-0.0094602834 0.039705727 0.16795334
-0.008599814 0.041250575 0.17448796
-0.0042252149 0.023644848 0.10001658
-0.024185669 0.16241537 0.68700927
-0.0055747651 0.046795662 0.19794343
-0.0037322538 0.041772351 0.17669505
-0.0024573163 0.041254379 0.17450407
-0.0012213595 0.041009314 0.17346744
0 0.040607236 0.17176667
0.0011998458 0.040286958 0.1704119
0.0023845616 0.040032946 0.16933747
0.0036064973 0.04036485 0.17074139
0.0048626927 0.04081839 0.17265984
0.0060967053 0.040941544 0.17318079
0.0072737155 0.040704653 0.17217873
0.0084352903 0.040461406 0.17114982
0.004057928 0.017031517 0.072042502
0.2700164 1.0073645 4.2611036
0.31503972 1.0578018 4.4744511
0.0090727769 0.027694052 0.11714453
0.014410044 0.040320236 0.17055267
0.015305557 0.039531633 0.16721693
0.016357053 0.039229795 0.16594017
0.017658306 0.039527263 0.16719845
0.019312045 0.040527266 0.1714284
0.020958714 0.041395649 0.17510164
0.022289293 0.041577924 0.17587264
0.023512665 0.041551556 0.1757611
0.024731943 0.041520946 0.17563163
0.025926396 0.041453559 0.17534658
0.026849592 0.040978305 0.17333628
0.027821546 0.040615555 0.17180187
0.029121708 0.040742215 0.17233762
0.030853659 0.041438654 0.17528354
0.032717105 0.042251345 0.17872117
0.83140129 1.0339177 4.3734221
0.1578996 0.18934855 0.80093539
0.87583601 1.0140604 4.2894268
0.13557097 0.15173455 0.64182991
0.98997247 1.0722609 4.5356121
0.12140918 0.12739153 0.53886008
0.7513389 0.76447088 3.2336755
0.10684413 0.10551416 0.44631988
0.17799222 0.17075445 0.72228312
0.16621502 0.15502678 0.65575594
0.18343511 0.16646378 0.70413387
0.035487056 0.031356338 0.13263582
1.1774007 1.013675 4.2877965
0.14556213 0.12218767 0.51684809
0.14959431 0.12250962 0.51820987
0.072963893 0.058330767 0.24673638
1.3984685 1.0920016 4.6191144
0.085120849 0.064956449 0.27476269
0.055653244 0.041525699 0.17565174
0.056354731 0.041135006 0.1739991
0.057212923 0.040872883 0.17289035
0.058140919 0.040670514 0.17203432
0.059500352 0.040772039 0.17246379
0.060521167 0.040642112 0.1719142
0.060885992 0.040085398 0.16955933
0.060785186 0.039249431 0.16602324
0.0610171 0.038655803 0.16351222
0.061248086 0.038083579 0.16109173
0.061854832 0.037761558 0.1597296
0.062060077 0.037210308 0.15739782
0.06215639 0.036614235 0.15487647
1.6521769 0.95646155 4.0457869
0.80865091 0.46020153 1.9466306
1.8588703 1.0402479 4.4001989
0.057162564 0.031464502 0.13309334
0.24861281 0.13463898 0.56951648
0.2628991 0.14011595 0.59268379
0.38341251 0.20115244 0.85086524
1.9050449 0.98408103 4.1626163
1.8510544 0.94170368 3.9833615
1.9970366 1.0008067 4.2333651
2.0541437 1.0142871 4.2903862
0.18388213 0.089480713 0.37849915
2.037226 0.97719264 4.1334782
0.16626133 0.078627035 0.33258861
1.9798883 0.92330927 3.9055543
0.18421431 0.084730446 0.35840577
1.6858162 0.76492262 3.2355862
0.095379226 0.042700358 0.18062048
0.2600325 0.11488228 0.48594654
2.3224001 1.0127106 4.2837172
2.3071764 0.99317366 4.2010775
1.4096777 0.5991447 2.5343535
2.2511086 0.94481212 3.9965103
2.1179523 0.87795073 3.7136898
2.4378715 0.99824232 4.2225175
-0.16815184 0.070908949 0.29124755
-0.23236839 0.09919855 0.40744269
-0.13994649 0.060490239 0.24845429
-0.080995113 0.035452347 0.14561503
-0.15120913 0.067034245 0.27533278
-0.13671255 0.06139471 0.25216925
-0.050071269 0.022781812 0.093572766
-0.10518986 0.048498232 0.19919898
-0.13318913 0.062237244 0.25562984
-0.14150399 0.067028433 0.27530891
-0.036137473 0.017355559 0.07128527
-0.21587195 0.10513593 0.43182954
-1.9488008 0.96268165 3.9540656
-0.020917542 0.010482741 0.043056235
-7.8286219e-05 3.9809773e-05 0.00016351246
-1.8938855 0.97744465 4.0147028
-0.19012669 0.099612176 0.4091416
-0.8766343 0.46635684 1.9154886
-1.8132179 0.97967792 4.0238752
-0.55306321 0.3035621 1.2468343
-1.886744 1.0522879 4.3221097
-1.9223096 1.0896996 4.4757724
-1.8217854 1.0499274 4.3124142
-0.16970599 0.099462278 0.40852588
-0.16214223 0.096667714 0.39704767
-1.7736201 1.0759673 4.4193687
-0.043817747 0.027056731 0.11113133
-0.041104369 0.025842741 0.10614505
-0.043132089 0.027619768 0.11344391
-0.11655702 0.076045908 0.31234679
-1.5144639 1.0070913 4.1364717
-0.10003097 0.06782309 0.27857283
-1.5397 1.0648278 4.3736153
-0.0023540277 0.0016612263 0.0068232296
-1.5043865 1.083756 4.4513597
-1.3937576 1.025422 4.2117624
-0.019591438 0.014727253 0.060489912
-1.4579068 1.1202902 4.6014185
-1.3717067 1.0780077 4.4277496
-1.3940562 1.1210502 4.6045403
-0.023158034 0.019066267 0.078311749
-0.022972604 0.019374909 0.079579435
-1.2806138 1.1070608 4.5470805
-0.14092331 0.12494864 0.51320714
-0.024867352 0.02262868 0.092943795
-0.051511437 0.04814101 0.19773175
-0.16704027 0.16044714 0.65901178
-1.0664375 1.0536119 4.3275476
-0.078449234 0.07978534 0.32770589
-0.096813537 0.10144612 0.41667423
-0.071184151 0.076921299 0.31594235
-0.017647354 0.019684808 0.0808523
-0.023465985 0.027047729 0.11109436
-0.10609994 0.12651162 0.51962686
-0.052190479 0.064453505 0.26473281
-0.0074869702 0.0095886085 0.039383728
-0.098589905 0.13112104 0.53855938
-0.7704404 1.0656444 4.3769693
-0.7860918 1.1325967 4.6519656
-0.71035725 1.0679779 4.3865538
-0.06542974 0.10284089 0.42240301
-0.041426998 0.06821461 0.28018096
-0.024110463 0.041685868 0.17121825
-0.022824155 0.041538842 0.17061435
-0.021275003 0.040870544 0.16786943
-0.01971752 0.040106673 0.16473195
-0.018244172 0.039429154 0.16194914
-0.016951099 0.039076883 0.16050224
-0.015790952 0.039002601 0.16019714
-0.014608359 0.038857188 0.15959989
-0.013399306 0.038611293 0.15858991
-0.012341863 0.038797282 0.15935384
-0.011332875 0.039188027 0.16095875
-0.010406808 0.039984193 0.16422887
-0.0094816778 0.04098345 0.16833316
-0.0057198666 0.028255383 0.1160546
-0.021906855 0.1262531 0.51856506
-0.0079476805 0.054964673 0.22575888
-0.0050721783 0.043847799 0.18009804
-0.0037181487 0.042856704 0.17602727
-0.0024518373 0.042391125 0.17411497
-0.0012219698 0.042254578 0.17355415
0 0.041994762 0.17248698
0.0012046351 0.04165516 0.17109212
0.0023901716 0.041324954 0.16973583
0.0035941866 0.041427873 0.17015857
0.0048156176 0.041629892 0.17098834
0.0060437992 0.041797787 0.17167793
0.0072560268 0.041817773 0.17176002
0.0085276822 0.042125616 0.17302443
0.0011444619 0.0049468037 0.020318229
0.26488608 1.0177238 4.1801429
0.053849962 0.18620814 0.76482111
0.0080412757 0.025278162 0.10382614
0.014818829 0.042701773 0.17539094
0.015606781 0.041512921 0.17050789
0.016542945 0.040859971 0.16782601
0.017781701 0.040991642 0.16836682
0.019449782 0.042034708 0.17265105
0.021140631 0.043001369 0.17662147
0.022436136 0.043101151 0.17703131
0.023516322 0.042798549 0.1757884
0.024480643 0.042325892 0.17384705
0.025489833 0.041972123 0.17239399
0.02635894 0.041430343 0.17016873
0.027451087 0.041270997 0.16951424
0.028786771 0.041475821 0.17035551
0.030737458 0.042514905 0.17462339
0.10479491 0.13937348 0.57245499
0.031786427 0.040709075 0.16720621
0.13826774 0.17075606 0.70135409
0.046988193 0.056027859 0.23012574
0.12404139 0.14297451 0.5872457
1.0014337 1.1170532 4.5881228
0.98807913 1.0677142 4.3854709
1.011355 1.059749 4.3527546
0.092839077 0.094420262 0.38781658
0.10557982 0.10431005 0.42843738
1.1302536 1.0856421 4.4591069
1.1608605 1.0849047 4.4560781
1.2215823 1.1116099 4.5657654
1.2829546 1.1375225 4.6721973
1.1780225 1.018373 4.1828094
1.3250909 1.117571 4.5902495
0.012181495 0.01002916 0.041193228
0.086058855 0.069205463 0.28425071
0.086243808 0.067777969 0.27838749
0.056674752 0.043550223 0.1788758
0.056728836 0.042644139 0.17515419
0.057708681 0.042457707 0.17438847
0.058402371 0.042072907 0.17280795
0.059567481 0.042036489 0.17265837
0.060302015 0.041703749 0.17129169
0.06077566 0.041207168 0.16925207
0.060688 0.040356431 0.16575779
0.061037373 0.039822932 0.16356651
0.061036982 0.039085221 0.16053648
0.061391827 0.038597677 0.15853398
0.0615125 0.037982948 0.15600906
0.061836708 0.03751326 0.1540799
0.078081533 0.046551496 0.19120306
1.798237 1.0539213 4.3288183
0.090394676 0.052096061 0.2139765
0.016988141 0.0096300673 0.039554007
0.18564904 0.10354146 0.42528051
0.043615006 0.023939148 0.098326333
0.53510636 0.28911686 1.1875027
1.3723904 0.73009199 2.99874
2.0213521 1.0590374 4.3498321
0.83082682 0.42879426 1.761206
1.9832762 1.0085272 4.1423693
0.22036517 0.11043511 0.45359507
2.079489 1.0272399 4.2192287
0.01579647 0.007693341 0.031599205
0.087471873 0.042009667 0.17254819
0.0085681528 0.0040586125 0.016670123
2.2192709 1.0370313 4.2594457
0.17349304 0.079989709 0.32854533
2.186805 0.99496949 4.0866833
2.0801184 0.93413705 3.8368232
0.57880229 0.25659543 1.053926
2.3232663 1.0169163 4.176826
0.5636403 0.24362694 1.0006599
2.2259855 0.95027792 3.9031196
0.14919429 0.062914625 0.25841209
-0.031247051 0.01355869 0.054121483
-0.076855682 0.033760861 0.13476138
-0.22410081 0.099672645 0.39785784
-0.060693249 0.027336054 0.10911583
-0.00099816779 0.00045533545 0.0018175377
-0.0017891597 0.00082676281 0.0033001439
-0.076499522 0.035815224 0.14296167
-2.1537981 1.0218009 4.0786662
-2.190449 1.0532318 4.2041278
-0.20231114 0.098609664 0.3936148
-2.1961868 1.0853237 4.3322272
-0.01307254 0.0065512494 0.026150266
-1.959854 0.99620396 3.9764926
-1.8605069 0.95941108 3.8296287
-0.13179442 0.068962127 0.27527237
-1.9790475 1.051003 4.195231
-1.8482625 0.99641961 3.9773536
-1.9188982 1.0504155 4.1928864
-1.7858241 0.99284446 3.963083
-1.8918513 1.0684863 4.2650185
-1.8484887 1.0608345 4.2344751
-0.030498412 0.017789753 0.071010381
-0.013069135 0.0077502932 0.03093642
-0.097048424 0.058527373 0.23362049
-0.13537265 0.083047293 0.33149534
-0.044145677 0.02755725 0.10999876
-0.097065188 0.061673414 0.2461784
-0.19342208 0.12513128 0.49947971
-1.6863427 1.1111549 4.4353361
-0.16027977 0.10760325 0.42951402
-1.599638 1.0945634 4.3691087
-0.12501317 0.087218404 0.34814492
-1.5904436 1.1318029 4.5177555
-0.13223781 0.096024506 0.38329577
-0.10972204 0.081334569 0.32465875
-0.095631681 0.072397985 0.28898707
-0.023769472 0.018385872 0.07338988
-0.083633155 0.066128477 0.26396143
-0.0023750425 0.001920619 0.0076664295
-0.080743454 0.066813067 0.26669407
-1.3677328 1.1587094 4.6251564
-1.0816257 0.93867594 3.7468615
-0.047227953 0.04201087 0.16769248
-0.040233672 0.036706895 0.1465209
-0.02299339 0.021529896 0.085939705
-0.038297396 0.03682901 0.14700834
-1.1882877 1.1744694 4.6880651
-1.1481012 1.1671715 4.6589346
-0.022713292 0.023769699 0.094880208
-0.083561458 0.090097889 0.35963881
-0.065718696 0.073073767 0.29168454
-0.036248401 0.041605398 0.16607398
-0.033159543 0.039328717 0.15698628
-0.036866307 0.04523287 0.18055357
-0.021651361 0.027513744 0.10982511
-0.068921395 0.090826556 0.36254737
-0.11772141 0.16110338 0.64306754
-0.062657356 0.089177363 0.35596439
-0.75085998 1.1131924 4.4434695
-0.014943907 0.023118457 0.092280686
-0.050010115 0.080883086 0.32285658
-0.024835365 0.04207981 0.16796768
-0.023573831 0.041939449 0.16740739
-0.022268793 0.041702837 0.16646293
-0.020750018 0.041017435 0.16372705
-0.019277077 0.040347334 0.16105224
-0.017936951 0.039888818 0.15922199
-0.016723767 0.039670289 0.15834972
-0.015600837 0.039649926 0.15826844
-0.014489247 0.039657474 0.15829857
-0.013429444 0.039819825 0.15894662
-0.012510593 0.040467627 0.16153242
-0.011567812 0.04115985 0.16429551
-0.010630393 0.042027097 0.16775727
-0.0099356268 0.044190388 0.17639236
-0.21635211 1.0997289 4.3897281
-0.19045968 1.1294692 4.50844
-0.0064276857 0.045741156 0.18258247
-0.005019105 0.044646647 0.17821358
-0.0036958898 0.043834928 0.17497349
-0.0024430829 0.043464106 0.1734933
-0.0012219585 0.043478947 0.17355253
0 0.0434484 0.17343059
0.0012128006 0.043153096 0.17225185
0.0024066824 0.042816516 0.17090835
0.0035909815 0.042590667 0.17000684
0.0047687781 0.042419903 0.16932522
0.0059607136 0.042418055 0.16931784
0.0071617546 0.042470828 0.16952847
0.0046237474 0.023502747 0.093814634
0.2441918 1.0860846 4.3352642
0.24609858 0.97294688 3.8836589
0.33465078 1.190733 4.7529831
0.36607751 1.1841395 4.726665
0.014929861 0.044268731 0.17670506
0.015679177 0.042914342 0.17129885
0.016517408 0.041979417 0.16756694
0.01771526 0.042022202 0.16773774
0.019361638 0.043057088 0.17186861
0.021146059 0.04425915 0.17666683
0.022538347 0.044552501 0.17783779
0.023609189 0.044213001 0.17648262
0.024397448 0.043404717 0.17325623
0.025251092 0.042784203 0.17077936
0.026088377 0.042193636 0.16842203
0.027199393 0.042077884 0.16795999
0.028424762 0.042141322 0.1682132
0.045371421 0.064575076 0.25776079
0.044227313 0.060525689 0.24159707
0.13604254 0.17928067 0.71562487
0.071385533 0.09071409 0.36209846
0.092374481 0.11333826 0.45240614
0.11102194 0.13167705 0.52560806
0.018958928 0.021760788 0.086861342
0.020410523 0.022694819 0.090589657
0.16184849 0.17450877 0.69657707
0.044777952 0.046860598 0.18705089
0.012717955 0.012929204 0.051608797
0.090741992 0.089686774 0.35799778
0.010269861 0.0098760966 0.039421879
0.77083588 0.72177333 2.881063
1.266719 1.1556817 4.6130714
0.087723166 0.078032739 0.311479
