# .PCD v0.7 - Point Cloud Data file format
VERSION 0.7
FIELDS x y z
SIZE 4 4 4
TYPE F F F
COUNT 1 1 1
WIDTH 1354
HEIGHT 1
VIEWPOINT 0 0 0 1 0 0 0
POINTS 1354
DATA ascii
0.096088946 -0.080257632 0.23942696
0.12684192 -0.10411723 0.31060562
0.23639184 -0.19075164 0.56905591
0.20744365 -0.16460261 0.49104738
0.31686243 -0.24730262 0.73776048
1.6671535 -1.2801819 3.8190768
1.6757283 -1.2663414 3.7777877
1.5707523 -1.1684644 3.4857976
1.0621101 -0.77793616 2.3207622
1.222494 -0.88184166 2.6307361
1.8780072 -1.3344744 3.9810436
0.024329644 -0.017033922 0.0508161
2.0020759 -1.3813993 4.1210313
0.14135846 -0.096141651 0.28681263
0.5006665 -0.3357206 1.0015317
0.15824527 -0.10463718 0.31215674
0.40316185 -0.26293257 0.78438824
0.081787817 -0.052619252 0.15697531
0.24534944 -0.15574409 0.46462041
0.15320562 -0.095972963 0.28630939
0.76228958 -0.47132125 1.4060596
2.1693091 -1.3240813 3.9500387
2.1910987 -1.3204522 3.9392121
1.7275862 -1.0281053 3.0670738
0.92817265 -0.54554617 1.6274897
2.0734339 -1.2038271 3.5912929
-0.13507494 -0.076772921 0.23395666
-0.099788949 -0.057417542 0.17497335
-0.11676145 -0.06802313 0.20729268
-0.11527277 -0.068005927 0.20724025
-0.11502568 -0.068730161 0.20944726
-0.1158433 -0.070117645 0.21367547
-0.11752629 -0.072072342 0.21963218
-0.118544 -0.073665731 0.22448786
-0.11905172 -0.074980982 0.22849591
-0.11778818 -0.075201407 0.22916766
-0.11542872 -0.074718565 0.22769624
-0.11154892 -0.07322412 0.2231421
-0.10837156 -0.072154671 0.21988305
-0.10615055 -0.071700186 0.21849808
-0.10529582 -0.072168782 0.21992606
-0.1041025 -0.072415829 0.22067891
-0.10294735 -0.072697319 0.22153674
-0.10148149 -0.07276468 0.22174202
-0.10032299 -0.073057979 0.22263579
-0.099042065 -0.073270015 0.22328196
-0.098290965 -0.073887177 0.22516267
-0.09768334 -0.074634194 0.22743912
-0.097634241 -0.075839952 0.23111352
-0.097112767 -0.076713435 0.23377539
-0.095358707 -0.076626591 0.23351075
-0.092677534 -0.075778633 0.23092666
-0.09050113 -0.07532049 0.22953053
-0.088986978 -0.075406864 0.22979377
-0.088002503 -0.075953603 0.23145989
-0.086713828 -0.076253474 0.2323737
-0.085315526 -0.07646662 0.23302321
-0.084122419 -0.076875642 0.23426966
-0.083186939 -0.077541158 0.23629776
-0.081937417 -0.077935144 0.2374984
-0.080400169 -0.07806617 0.23789768
-0.078545086 -0.077887602 0.2373535
-0.076860696 -0.077874213 0.23731269
-0.075457186 -0.078151122 0.23815657
-0.07411921 -0.078510053 0.23925035
-0.07248462 -0.078564182 0.2394153
-0.070714034 -0.078469969 0.23912822
-0.068887942 -0.078308061 0.23863481
-0.067306146 -0.078422718 0.23898421
-0.06571386 -0.078530699 0.23931329
-0.064117521 -0.078639418 0.23964459
-0.062698685 -0.078977585 0.24067511
-0.06177479 -0.079975307 0.24371555
-0.060984712 -0.081208237 0.24747278
-0.059922703 -0.08214093 0.25031504
-0.058496337 -0.082615569 0.25176147
-0.05679138 -0.082714111 0.25206172
-0.054903906 -0.082544602 0.25154519
-0.053280607 -0.082774214 0.25224489
-0.052060302 -0.083667323 0.25496653
-0.051132508 -0.085111104 0.2593663
-0.049967255 -0.086251944 0.26284289
-0.048355505 -0.086680174 0.26414785
-0.04627746 -0.086273342 0.2629081
-0.044500001 -0.086416349 0.2633439
-0.042990707 -0.087115183 0.26547351
-0.041578691 -0.08808364 0.26842478
-0.039962489 -0.08869116 0.27027613
-0.03823841 -0.089108057 0.27154657
-0.036512204 -0.089563616 0.27293482
-0.034946386 -0.090485066 0.27574283
-0.033428125 -0.091645308 0.27927855
-0.031888317 -0.092887819 0.28306496
-0.030217381 -0.093888558 0.2861146
-0.02830361 -0.094223872 0.28713644
-0.026100371 -0.093572982 0.28515291
-0.02393814 -0.092972882 0.28332415
-0.021827959 -0.092484206 0.28183499
-0.020022761 -0.093319222 0.2843796
-0.018342152 -0.094984978 0.2894558
-0.016742673 -0.097539812 0.29724139
-0.014873487 -0.099028885 0.30177915
-0.012885222 -0.10008934 0.30501074
-0.010765147 -0.10034533 0.30579084
-0.0087907892 -0.10242713 0.31213492
-0.0067390902 -0.10469529 0.31904688
-0.0045723445 -0.10655065 0.32470083
-0.0022995803 -0.10717555 0.32660517
0 -0.10782713 0.32859081
0.0023319814 -0.10868566 0.33120704
0.0047274767 -0.11016573 0.33571741
0.0071663656 -0.11133324 0.33927527
0.0095580705 -0.11136723 0.3393788
0.011950022 -0.11138992 0.33944798
0.01438091 -0.11170748 0.34041572
0.017171985 -0.11433247 0.34841508
0.019760646 -0.11512199 0.35082102
0.022670519 -0.11739946 0.35776138
0.025325514 -0.11803354 0.35969362
0.028529584 -0.12087874 0.36836404
0.030779334 -0.11954326 0.36429432
0.031087553 -0.11145263 0.3396391
0.030942552 -0.10300901 0.31390813
0.032234952 -0.10015737 0.30521807
0.031804062 -0.092642389 0.28231704
0.032951418 -0.090338394 0.27529588
0.033901557 -0.087779745 0.26749867
0.036235794 -0.088885583 0.27086863
0.038262349 -0.08916384 0.27171656
0.040485866 -0.089852728 0.27381587
0.042212959 -0.089427322 0.2725195
0.043840047 -0.08883626 0.27071831
0.045564443 -0.08848343 0.2696431
0.047375482 -0.088320345 0.26914611
0.048687905 -0.087276012 0.26596361
0.049908265 -0.086150117 0.26253259
0.051942229 -0.086458899 0.26347354
0.055288915 -0.088856094 0.27077872
0.058349513 -0.090649024 0.27624246
0.06045641 -0.090892449 0.27698427
0.061701041 -0.089864813 0.27385268
0.062360737 -0.088073336 0.26839337
0.06366425 -0.087269776 0.2659446
0.066531457 -0.08859437 0.26998115
0.069664538 -0.090189591 0.27484241
0.078170426 -0.098466359 0.30006489
0.11167391 -0.13696678 0.41739053
0.07736522 -0.092454545 0.28174463
0.08762306 -0.10209527 0.31112358
0.1299929 -0.14776886 0.45030859
0.09212736 -0.10223191 0.31154001
0.19695768 -0.21347725 0.65054739
0.2309092 -0.24458832 0.74535477
0.17639172 -0.18268918 0.55672425
0.21710028 -0.21996304 0.67031205
0.2097625 -0.20800662 0.63387626
0.11639024 -0.11301146 0.34438944
0.16215226 -0.15423185 0.47000381
0.14507727 -0.13523108 0.41210115
0.059120562 -0.054027583 0.16464284
0.12479065 -0.11184739 0.34084204
0.32548961 -0.28622556 0.87223953
0.21069197 -0.18184499 0.55415177
0.24195966 -0.20503472 0.62481982
0.26438636 -0.22003824 0.67054123
0.19606137 -0.16031137 0.48853049
0.244176 -0.19621046 0.59792882
0.2364504 -0.18678206 0.56919688
0.18147674 -0.1409668 0.42958012
0.11997198 -0.091663659 0.27933446
0.32650098 -0.24543695 0.7479409
0.058732852 -0.043449789 0.13240825
0.1869463 -0.13613947 0.4148694
1.8621447 -1.3352027 4.0688767
1.7773049 -1.2550619 3.824657
0.18337229 -0.1275575 0.38871685
2.0357587 -1.3952903 4.2519865
0.22368078 -0.15108687 0.46041989
2.0856988 -1.3886753 4.2318282
1.9507384 -1.2805244 3.902251
0.40277725 -0.26072314 0.79452384
2.0537541 -1.3112115 3.9957662
0.38172838 -0.24041961 0.73265111
0.23798692 -0.14789006 0.45067796
2.2532928 -1.3818191 4.2109351
0.47353381 -0.28662059 0.87344337
0.30451787 -0.18195555 0.5544886
0.50214934 -0.29624629 0.9027766
0.42977914 -0.25038165 0.76300931
0.13806865 -0.079443291 0.24209428
0.16612037 -0.094418295 0.28772891
-0.12099004 -0.067288578 0.20956089
-0.10318555 -0.058095094 0.18092906
-0.11579526 -0.066009499 0.20557737
-0.11420389 -0.06592641 0.20531861
-0.11366688 -0.066457637 0.20697306
-0.11336906 -0.067144334 0.20911168
-0.11428753 -0.068578951 0.2135796
-0.11541652 -0.070179835 0.2185653
-0.11657429 -0.071841709 0.22374098
-0.11637249 -0.07269977 0.22641331
-0.11472972 -0.07266897 0.22631738
-0.11224755 -0.072098151 0.22453962
-0.10962884 -0.071422063 0.22243406
-0.1078326 -0.071269974 0.22196041
-0.1066557 -0.07152877 0.22276638
-0.10486203 -0.071375482 0.22228898
-0.10310882 -0.071245506 0.22188418
-0.10144849 -0.0711767 0.2216699
-0.10068367 -0.071743846 0.22343621
-0.1000392 -0.072416112 0.22552988
-0.09942966 -0.073135771 0.22777116
-0.098378442 -0.073548824 0.22905754
-0.097580858 -0.074168414 0.23098719
-0.096315138 -0.074447155 0.2318553
-0.094648607 -0.07442037 0.23177184
-0.092615716 -0.074099526 0.23077264
-0.090755008 -0.073907442 0.23017441
-0.089067288 -0.073851809 0.23000114
-0.087680027 -0.074047856 0.23061173
-0.086282551 -0.074242517 0.23121798
-0.085254066 -0.074768268 0.23285536
-0.084554583 -0.075608842 0.23547319
-0.083710477 -0.076351129 0.23778492
-0.082223013 -0.076524921 0.23832619
-0.080395006 -0.076382421 0.23788241
-0.078356445 -0.076029554 0.23678344
-0.07659626 -0.075937323 0.23649621
-0.07506679 -0.076074824 0.23692442
-0.073505908 -0.076185994 0.23727065
-0.071695447 -0.076037645 0.23680866
-0.069944978 -0.075947396 0.23652758
-0.068223126 -0.075884543 0.23633184
-0.066820502 -0.076182514 0.23725984
-0.065263398 -0.076315135 0.23767285
-0.06348262 -0.076186292 0.23727159
-0.061948337 -0.076354302 0.23779483
-0.061220877 -0.077553712 0.24153022
-0.060806461 -0.079229563 0.24674943
-0.060265593 -0.080834381 0.2517474
-0.059150081 -0.081742324 0.25457507
-0.057516605 -0.081968844 0.25528055
-0.055606566 -0.081803136 0.25476447
-0.053920779 -0.081967279 0.25527567
-0.052380122 -0.082370959 0.25653285
-0.051142961 -0.083297782 0.25941932
-0.049649157 -0.083859771 0.26116958
-0.047884881 -0.083990596 0.26157701
-0.045969043 -0.083855398 0.26115593
-0.044324599 -0.084224634 0.26230589
-0.043023434 -0.085306644 0.26567563
-0.041717876 -0.086477883 0.26932332
-0.040225532 -0.087355062 0.27205515
-0.03853238 -0.087862074 0.27363417
-0.036868237 -0.088492073 0.27559623
-0.035296004 -0.089424938 0.27850148
-0.033765789 -0.090580262 0.2820996
-0.032126989 -0.091570511 0.28518358
-0.030302182 -0.092127271 0.28691754
-0.028266074 -0.092075273 0.28675562
-0.02606504 -0.091436721 0.28476691
-0.023921425 -0.090909943 0.28312632
-0.021859296 -0.090625212 0.28223959
-0.020088829 -0.091613665 0.28531799
-0.018440101 -0.093438618 0.29100153
-0.01681345 -0.095845662 0.29849795
-0.014897075 -0.097052902 0.30225772
-0.012841003 -0.09760078 0.30396402
-0.010744222 -0.097996496 0.3051964
-0.0087527055 -0.099790208 0.31078267
-0.006707571 -0.10196465 0.31755465
-0.0045657684 -0.10410929 0.32423383
-0.0023015004 -0.10495827 0.32687789
0 -0.10546285 0.32844934
0.0023261495 -0.10608237 0.33037877
0.0046905563 -0.10695472 0.33309555
0.0071030143 -0.10797594 0.33627602
0.0095282337 -0.10863206 0.33831939
0.011998374 -0.10943544 0.34082142
0.014662603 -0.11144623 0.34708378
0.017404674 -0.11338966 0.35313627
0.020162318 -0.11493599 0.35795212
0.022935864 -0.11621928 0.36194873
0.025427634 -0.1159609 0.36114404
0.029497404 -0.12229162 0.38086018
0.031974293 -0.12151371 0.37843752
0.029618526 -0.10390243 0.32358962
0.029326444 -0.095529377 0.29751295
0.029916098 -0.090953469 0.2832619
0.030216463 -0.086125001 0.2682243
0.031688452 -0.085007586 0.26474428
0.032887012 -0.083321579 0.25949344
0.035073698 -0.084184781 0.26218176
0.037190747 -0.084802866 0.26410669
0.039695002 -0.086202949 0.26846704
0.041541368 -0.086112 0.26818383
0.043383956 -0.086021483 0.2679019
0.045018472 -0.085543118 0.26641214
0.046664637 -0.085124277 0.26510769
0.047832392 -0.083898529 0.26129028
0.048998579 -0.082760915 0.25774735
0.051262077 -0.083491787 0.26002353
0.054632634 -0.085913166 0.26756459
0.058233131 -0.088522665 0.27569151
0.060099248 -0.088412352 0.27534795
0.060809191 -0.08666122 0.2698943
0.06210871 -0.085830994 0.26730865
0.063097924 -0.084633388 0.26357889
0.06602899 -0.08603441 0.26794216
0.06818714 -0.08637847 0.26901373
0.091215022 -0.11242689 0.35013789
0.083433226 -0.10012926 0.31183863
0.081545748 -0.095354751 0.29696906
0.10214334 -0.11645433 0.36268079
0.11669776 -0.12980285 0.40425289
0.10708463 -0.11627424 0.36211988
0.082830004 -0.087846562 0.27358589
0.11704896 -0.12131666 0.37782383
0.20999405 -0.21281396 0.66277939
0.10392724 -0.10303318 0.32088247
0.15971002 -0.15496723 0.48262388
0.13870594 -0.13178299 0.41041979
0.21867384 -0.20351964 0.63383359
0.028987365 -0.026438959 0.082340449
0.19571784 -0.1750112 0.54504794
0.26472896 -0.23216872 0.72305715
0.15441449 -0.13286719 0.41379637
0.25996879 -0.21954979 0.68375719
0.2510972 -0.20820193 0.64841586
0.2008449 -0.16356048 0.5093863
0.16129588 -0.12904881 0.40190449
0.16029768 -0.12603897 0.39253077
0.21149108 -0.16347285 0.50911343
0.20623784 -0.15675548 0.48819306
0.26902902 -0.20112909 0.62638849
0.4534204 -0.33351469 1.038685
0.24741536 -0.1790984 0.55777699
0.48275542 -0.34399548 1.071326
0.24443708 -0.1714981 0.53410691
1.540598 -1.0645131 3.3152773
1.5079128 -1.0263772 3.1965086
0.58585197 -0.39290228 1.2236394
1.0384381 -0.68633658 2.1374996
1.9194177 -1.2504809 3.8944485
0.77393907 -0.49711171 1.5481851
0.41277805 -0.26145062 0.81425154
0.33627757 -0.21007805 0.65425879
0.12507997 -0.077083535 0.24006592
0.11017741 -0.066994153 0.20864396
0.60075068 -0.36048421 1.1226778
0.38205418 -0.2262767 0.70470721
0.20135656 -0.11772718 0.36664492
0.6748817 -0.38958853 1.2133191
1.9970647 -1.1384337 3.5454931
0.12346778 -0.069514312 0.21649262
2.0623078 -1.146952 3.572022
-0.11798253 -0.064173847 0.20435175
-0.13250358 -0.072962008 0.23233631
-0.11588085 -0.064606443 0.20572929
-0.11413626 -0.064439289 0.20519701
-0.11346186 -0.064879797 0.20659974
-0.11235663 -0.0650822 0.20724425
-0.11190096 -0.065671124 0.20911957
-0.11271904 -0.067033239 0.21345703
-0.1134719 -0.068392865 0.21778655
-0.11353886 -0.069370665 0.22090021
-0.11302771 -0.070017509 0.22296
-0.11112276 -0.069806986 0.22228961
-0.10948887 -0.069763161 0.22215006
-0.10830488 -0.070008881 0.22293252
-0.10653653 -0.069878541 0.22251746
-0.10403667 -0.069257349 0.22053938
-0.10198526 -0.068920381 0.21946636
-0.10046191 -0.068935402 0.21951418
-0.10056155 -0.070081957 0.22316521
-0.10057889 -0.071206644 0.2267466
-0.099914871 -0.071877442 0.22888269
-0.098048203 -0.071690895 0.22828862
-0.096256174 -0.071553603 0.22785147
-0.094483294 -0.071426138 0.22744557
-0.093076333 -0.071575679 0.22792174
-0.091881402 -0.071896374 0.22894293
-0.090709239 -0.072246648 0.23005834
-0.089222632 -0.072354667 0.23040229
-0.087601788 -0.072355814 0.23040597
-0.085970618 -0.072348312 0.23038206
-0.084926948 -0.072844431 0.23196189
-0.084316142 -0.073738582 0.23480918
-0.083579503 -0.074556231 0.23741286
-0.082149073 -0.074775755 0.23811188
-0.080340534 -0.074653067 0.23772122
-0.078159057 -0.074171253 0.23618695
-0.07617937 -0.073864155 0.23520905
-0.074426942 -0.07376866 0.23490494
-0.072863296 -0.073860168 0.23519635
-0.071239233 -0.073893279 0.23530179
-0.069767296 -0.074089527 0.23592669
-0.068267122 -0.074264616 0.23648424
-0.066951603 -0.074654363 0.23772535
-0.065393925 -0.074787155 0.2381482
-0.063460693 -0.074486136 0.23718964
-0.061832149 -0.074536122 0.23734882
-0.061062068 -0.075652495 0.24090372
-0.060671169 -0.077315852 0.24620043
-0.060235322 -0.079018086 0.25162095
-0.059181821 -0.079988688 0.25471166
-0.057560168 -0.080228068 0.25547391
-0.05580641 -0.080292799 0.25568005
-0.054153915 -0.080512404 0.2563794
-0.052478354 -0.080711685 0.25701395
-0.050923917 -0.081118137 0.25830823
-0.049260862 -0.081375279 0.25912705
-0.047441583 -0.081384182 0.25915542
-0.045750793 -0.081623048 0.25991604
-0.044325508 -0.082375236 0.26231125
-0.043101095 -0.083582364 0.26615518
-0.041808918 -0.084761858 0.26991108
-0.040359966 -0.085720703 0.27296439
-0.038709652 -0.086326368 0.27489305
-0.037111655 -0.087118603 0.27741578
-0.035542347 -0.08806996 0.28044525
-0.033902194 -0.088947371 0.28323922
-0.032120507 -0.0895399 0.28512606
-0.03018456 -0.089752756 0.28580385
-0.028115965 -0.089573421 0.28523278
-0.026033733 -0.089319713 0.2844249
-0.024014691 -0.089258581 0.2842302
-0.022065034 -0.089467667 0.28489605
-0.020321321 -0.090637133 0.28862002
-0.018646397 -0.092407368 0.29425707
-0.016907787 -0.094265103 0.30017275
-0.014933673 -0.095153064 0.3030003
-0.012898224 -0.095881075 0.30531853
-0.010785526 -0.09621118 0.30636972
-0.008750489 -0.097572289 0.31070396
-0.0066724271 -0.099201165 0.31589085
-0.0045339824 -0.10111231 0.3219766
-0.0022947164 -0.10234892 0.32591435
0 -0.10309641 0.32829469
0.0023184041 -0.10340543 0.32927868
0.0046599009 -0.10392042 0.33091861
0.0070297201 -0.10451316 0.33280608
0.0094558382 -0.10543729 0.33574885
0.011995996 -0.10700906 0.34075388
0.014776449 -0.10984316 0.34977865
0.017630979 -0.11233953 0.35772794
0.020333275 -0.11336306 0.36098725
0.02275512 -0.11276928 0.35909644
0.025301883 -0.11285143 0.35935801
0.021487113 -0.087124355 0.27743411
0.024609413 -0.091469064 0.29126915
0.024984445 -0.08571969 0.27296117
0.026425773 -0.084188722 0.26808602
0.027674552 -0.082289331 0.26203772
0.02906407 -0.081019707 0.2579948
0.030982565 -0.081287295 0.25884688
0.032773118 -0.081208125 0.25859478
0.034888044 -0.081898741 0.26079392
0.036673162 -0.0817848 0.26043111
0.038857732 -0.082530104 0.26280442
0.040587313 -0.082285218 0.26202464
0.042362563 -0.082150191 0.26159465
0.044058003 -0.081878096 0.26072821
0.045948409 -0.081975617 0.26103872
0.047641683 -0.081727453 0.26024851
0.049202126 -0.081278242 0.25881806
0.051689416 -0.082337521 0.26219118
0.054751325 -0.084207505 0.26814586
0.058885604 -0.087547161 0.27878049
0.060895741 -0.087615192 0.27899709
0.062073089 -0.086518228 0.27550396
0.063131265 -0.085326664 0.27170962
0.064489536 -0.084598862 0.26939207
0.066665418 -0.084954582 0.2705248
0.076402344 -0.094658241 0.30142459
0.08853621 -0.10672677 0.33985502
0.095864631 -0.11251982 0.35830206
0.086542606 -0.098973647 0.31516635
0.1059695 -0.11816125 0.37626636
0.12200601 -0.13272464 0.42264122
0.12055358 -0.12802212 0.40766674
0.14810681 -0.15362459 0.48919392
0.17707986 -0.17950258 0.57159835
0.13127254 -0.13011147 0.41431996
0.24322714 -0.23583508 0.75098056
0.25053802 -0.23775516 0.7570948
0.14848915 -0.13797732 0.43936753
0.32786977 -0.29844171 0.95034164
0.22887619 -0.20416664 0.65013725
0.13281521 -0.11615338 0.36987257
0.21611816 -0.18537113 0.5902859
0.15951924 -0.13424292 0.42747593
0.081493966 -0.067310974 0.21434146
0.19831111 -0.16081944 0.51210475
0.1258409 -0.10022775 0.31915987
0.055993736 -0.043814596 0.13952084
0.24314964 -0.18698202 0.59541547
0.20151678 -0.1523398 0.48510268
0.091407649 -0.067949377 0.21637435
0.28838432 -0.21086086 0.67145401
0.17643426 -0.12692448 0.40417156
0.13875037 -0.098230831 0.312801
0.2655251 -0.18504606 0.58925074
0.060513314 -0.041523296 0.13222454
0.04974186 -0.033614937 0.1070416
2.0472856 -1.3628807 4.3398838
0.14068845 -0.092279181 0.29384884
1.953214 -1.2625685 4.0204554
1.8918362 -1.2054236 3.838486
0.62659127 -0.39362276 1.2534311
0.059104536 -0.036613606 0.1165904
2.1052043 -1.2862506 4.0958672
0.10475785 -0.063140646 0.20106168
0.25427243 -0.15121406 0.48151791
2.0271134 -1.1896486 3.7882528
0.1586829 -0.091916531 0.29269406
0.88523841 -0.50619733 1.6119076
2.3166692 -1.3079499 4.1649656
0.040918797 -0.022813246 0.072645269
1.6777632 -0.9238466 2.9418473
1.6293453 -0.88624436 2.822109
-0.12799576 -0.068055801 0.22169515
-0.12160785 -0.06545759 0.21323135
-0.11734401 -0.063952044 0.20832694
-0.11623181 -0.064147733 0.20896442
-0.11443795 -0.063967437 0.20837708
-0.11234832 -0.063614964 0.20722888
-0.11106686 -0.063716859 0.20756084
-0.11128085 -0.064690821 0.21073353
-0.11201938 -0.066000141 0.21499875
-0.11150815 -0.066598922 0.21694928
-0.10940678 -0.066251419 0.2158173
-0.10879377 -0.066808097 0.21763068
-0.10855755 -0.067615375 0.22026044
-0.10817805 -0.068355508 0.22267145
-0.10639237 -0.068215802 0.22221637
-0.10309838 -0.067090414 0.21855035
-0.10034679 -0.066289239 0.21594048
-0.09898258 -0.066394009 0.21628176
-0.10018247 -0.068248831 0.22232395
-0.10063495 -0.069645286 0.22687297
-0.099923901 -0.070268571 0.22890337
-0.09745314 -0.069654547 0.22690314
-0.095193006 -0.069173105 0.22533481
-0.093104623 -0.06880226 0.22412677
-0.09193556 -0.069109701 0.22512825
-0.091233067 -0.069784805 0.22732747
-0.090743467 -0.070649773 0.23014517
-0.089742556 -0.07114087 0.2317449
-0.088249348 -0.071252681 0.23210914
-0.086241275 -0.070945151 0.23110737
-0.08458323 -0.07091929 0.23102309
-0.083464317 -0.071353301 0.23243694
-0.082729056 -0.072139226 0.23499711
-0.081477776 -0.072498091 0.2361661
-0.079887435 -0.072563909 0.23638053
-0.077679105 -0.072059266 0.23473661
-0.075634621 -0.071687959 0.23352709
-0.073941551 -0.071640648 0.23337297
-0.072688431 -0.072027117 0.23463191
-0.071338929 -0.072333857 0.23563111
-0.070132606 -0.072803803 0.23716201
-0.068757556 -0.073117271 0.23818316
-0.067496486 -0.073570654 0.23966004
-0.066050693 -0.073840775 0.24053997
-0.064247347 -0.073714867 0.24012983
-0.062699124 -0.073882774 0.24067679
-0.061577842 -0.074577086 0.24293855
-0.060784835 -0.075720005 0.24666168
-0.059825175 -0.076716453 0.24990764
-0.058586884 -0.077405162 0.25215113
-0.05703691 -0.077712245 0.25315151
-0.05558864 -0.078182183 0.25468233
-0.054071989 -0.078584075 0.25599155
-0.052438032 -0.07883732 0.25681645
-0.050804116 -0.079108708 0.25770053
-0.049103566 -0.079292603 0.25829959
-0.047288842 -0.079299197 0.25832105
-0.045753311 -0.079793215 0.25993037
-0.044337437 -0.080545776 0.26238185
-0.043137524 -0.081773169 0.26638016
-0.041830376 -0.082899615 0.27004963
-0.040364534 -0.08380387 0.27299526
-0.038750656 -0.084475838 0.27518424
-0.037132889 -0.085209601 0.27757451
-0.035451367 -0.085870489 0.27972737
-0.033712197 -0.086461268 0.28165185
-0.031881079 -0.086875327 0.28300071
-0.029939415 -0.087023288 0.28348267
-0.027945243 -0.087028861 0.28350082
-0.025996866 -0.08718887 0.28402209
-0.024069889 -0.087453306 0.2848835
-0.022230715 -0.088113852 0.28703523
-0.020469328 -0.08924564 0.2907221
-0.018781474 -0.090985171 0.29638872
-0.016962446 -0.092444681 0.30114314
-0.015049011 -0.093733191 0.30534053
-0.0129977 -0.094449289 0.30767325
-0.010910609 -0.095139839 0.30992275
-0.0088125756 -0.096056409 0.3129085
-0.0066833608 -0.097130828 0.31640849
-0.0045206319 -0.09854909 0.32102853
-0.0022876535 -0.099741004 0.32491124
0 -0.10047362 0.32729778
0.0023129899 -0.10084566 0.32850972
0.004640006 -0.10115143 0.32950577
0.0069951098 -0.10166155 0.33116752
0.00940686 -0.10253406 0.33400977
0.011951095 -0.10421281 0.3394784
0.014624404 -0.10626992 0.34617952
0.017498711 -0.10899121 0.35504428
0.020084381 -0.1094591 0.35656846
0.022413449 -0.10857996 0.35370457
0.026282342 -0.11459021 0.37328327
0.028706664 -0.11378198 0.37065044
0.022383025 -0.081324413 0.26491833
0.023894859 -0.080139115 0.26105717
0.024868501 -0.077447079 0.25228772
0.026296264 -0.076433934 0.24898733
0.028034892 -0.076394543 0.24885902
0.030274939 -0.077645771 0.25293493
0.032418165 -0.07852345 0.25579402
0.034471817 -0.079103187 0.25768256
0.036115639 -0.078731544 0.2564719
0.03780444 -0.07848867 0.25568074
0.039258562 -0.077802785 0.25344643
0.041001894 -0.077724785 0.25319234
0.042953264 -0.07803122 0.25419056
0.045500264 -0.079351902 0.25849277
0.047687314 -0.079967394 0.26049775
0.049743563 -0.080326073 0.26166618
0.052401297 -0.081595734 0.26580215
0.055969391 -0.0841465 0.27411139
0.059436813 -0.086380892 0.28139007
0.061722063 -0.086808488 0.28278294
0.063294567 -0.086238243 0.28092536
0.065192729 -0.086132817 0.28058192
0.066148087 -0.084824607 0.27632034
0.070460275 -0.087772749 0.28592411
0.082906671 -0.10040849 0.32708561
0.074959323 -0.088329829 0.2877388
0.1081185 -0.12405089 0.40410194
0.11897855 -0.13301098 0.43328989
0.15475209 -0.16867861 0.54947889
0.19668886 -0.20916034 0.68135017
0.17087059 -0.1773787 0.57781988
0.15328246 -0.15542021 0.50628901
0.18811223 -0.1864008 0.60720986
0.19609702 -0.18999489 0.61891776
0.2037656 -0.193133 0.62914032
0.14068554 -0.13050738 0.42513424
0.22593474 -0.20522262 0.66852283
0.20330422 -0.18089801 0.58928418
0.11551266 -0.10072634 0.32812101
0.11774331 -0.10065827 0.32789934
0.19313422 -0.16193448 0.52750957
0.19518495 -0.16056611 0.5230521
0.17808174 -0.14378349 0.46838188
0.14289288 -0.11327429 0.36899659
0.34048265 -0.2650882 0.86353797
0.26498336 -0.20268759 0.66026491
0.23647097 -0.17775969 0.57906097
0.21522267 -0.1590448 0.51809633
0.14899667 -0.10827016 0.35269538
0.22509748 -0.16088822 0.52410138
0.26532689 -0.1865834 0.60780472
0.26717424 -0.18490025 0.60232174
0.39067209 -0.2661435 0.86697561
0.24526671 -0.16451621 0.53591973
1.7380455 -1.1481553 3.7401729
1.0848341 -0.70594686 2.2996569
1.4609448 -0.93671679 3.0514016
0.33395687 -0.21102054 0.68740982
1.0542653 -0.65665203 2.1390767
1.7774973 -1.0915259 3.5556996
0.32702893 -0.19803281 0.64510173
0.41876924 -0.25011247 0.81475377
0.2728132 -0.16073745 0.52361023
0.56518501 -0.32855862 1.0702959
0.6794191 -0.38976932 1.2696928
0.1809548 -0.10246199 0.33377504
2.230943 -1.2470312 4.0622659
0.20401663 -0.11259572 0.36678615
0.88232857 -0.48086572 1.5664439
1.451346 -0.78121293 2.5448399
0.97957164 -0.52084178 1.6966679
-0.11692704 -0.060741317 0.20252357
-0.11782809 -0.061965071 0.20660378
-0.11872518 -0.063217305 0.210779
-0.11749627 -0.063354887 0.21123773
-0.11554881 -0.063103579 0.21039982
-0.11321647 -0.062632829 0.20883024
-0.1122337 -0.062906101 0.2097414
-0.11289497 -0.064120434 0.21379021
-0.11301511 -0.065056086 0.21690984
-0.11125226 -0.064918593 0.21645141
-0.10857666 -0.064237267 0.21417978
-0.10745903 -0.064471491 0.21496069
-0.10820503 -0.065846473 0.21954517
-0.10833879 -0.066883355 0.22300231
-0.10664815 -0.066807859 0.22275062
-0.10313745 -0.065572955 0.21863319
-0.10044765 -0.06483043 0.2161575
-0.099569544 -0.065252371 0.2175643
-0.10042328 -0.066840172 0.22285832
-0.10067603 -0.068072028 0.22696559
-0.099537395 -0.06838765 0.22801797
-0.096853621 -0.067634635 0.22550726
-0.094601125 -0.067162693 0.22393373
-0.09272407 -0.066945843 0.22321066
-0.091539003 -0.067229718 0.2241572
-0.090872072 -0.067910783 0.22642796
-0.090757079 -0.069035992 0.23017965
-0.09024509 -0.069894664 0.23304261
-0.089108624 -0.070292518 0.23436916
-0.086952135 -0.069885574 0.23301232
-0.084712312 -0.069394708 0.23137566
-0.082984611 -0.069312334 0.23110102
-0.082124479 -0.069965787 0.23327976
-0.080963597 -0.070384465 0.23467572
-0.079702914 -0.07073202 0.23583455
-0.077662691 -0.070387848 0.23468702
-0.075755514 -0.070151918 0.23390034
-0.074163347 -0.070203684 0.23407297
-0.073050953 -0.070722282 0.2358021
-0.071811587 -0.071139231 0.23719229
-0.070643678 -0.071648508 0.23889031
-0.069322534 -0.072023414 0.2401403
-0.068129785 -0.072553791 0.24190871
-0.066873066 -0.073041514 0.24353486
-0.065412961 -0.073326901 0.24448639
-0.064063519 -0.073755123 0.24591415
-0.062693782 -0.074183121 0.24734117
-0.061003368 -0.074245289 0.24754849
-0.059324861 -0.074326031 0.24781768
-0.057726469 -0.074515082 0.248448
-0.056297481 -0.074941449 0.24986961
-0.055184312 -0.075829305 0.25282988
-0.053910598 -0.076548383 0.25522745
-0.052467383 -0.077068083 0.25696021
-0.050901301 -0.077437975 0.25819355
-0.049214114 -0.077644199 0.25888112
-0.047457613 -0.077752732 0.25924298
-0.045897931 -0.07820531 0.26075199
-0.044400856 -0.078806706 0.26275715
-0.043145347 -0.07990782 0.26642847
-0.04178977 -0.08091525 0.26978746
-0.040159419 -0.081461288 0.27160802
-0.038505591 -0.082011916 0.27344394
-0.036900003 -0.082728654 0.27583367
-0.035324257 -0.083595648 0.2787244
-0.033596404 -0.084183507 0.28068444
-0.031769358 -0.084580757 0.28200898
-0.02985193 -0.084774315 0.28265432
-0.027948914 -0.085039377 0.28353807
-0.026071422 -0.085428834 0.28483662
-0.024187203 -0.085859336 0.28627202
-0.022371702 -0.086634226 0.28885564
-0.020550592 -0.087540187 0.29187629
-0.018800052 -0.088981487 0.29668188
-0.016949702 -0.090251662 0.30091691
-0.015067008 -0.091687918 0.30570567
-0.013041764 -0.092590883 0.3087163
-0.010979275 -0.093537726 0.31187326
-0.0088727335 -0.094488844 0.31504449
-0.0067356932 -0.09564101 0.31888604
-0.0045199506 -0.096269079 0.32098013
-0.0022708974 -0.096734323 0.32253137
0 -0.097261339 0.32428852
0.0023009588 -0.098014869 0.32680097
0.0046432875 -0.098895997 0.32973883
0.0070180292 -0.099649936 0.33225259
0.0094380677 -0.10050929 0.33511782
0.011923729 -0.10158399 0.3387011
0.014571856 -0.10345387 0.34493566
0.017200435 -0.10467055 0.34899232
0.019483596 -0.10374382 0.34590244
0.016173419 -0.076549508 0.2552312
0.019953975 -0.084998757 0.28340265
0.019717479 -0.07635577 0.25458524
0.020978762 -0.074470058 0.24829791
0.022480002 -0.073660746 0.24559948
0.02399773 -0.07301721 0.24345382
0.025428118 -0.072211452 0.24076726
0.027209202 -0.07244008 0.24152955
0.029517502 -0.073962875 0.24660686
0.031964079 -0.075643703 0.25221106
0.03383645 -0.075860254 0.25293308
0.035158232 -0.07488247 0.24967296
0.036420118 -0.073876306 0.24631822
0.037640486 -0.072881222 0.24300042
0.039558902 -0.0732655 0.24428166
0.04183235 -0.074247889 0.24755715
0.044863783 -0.076443225 0.25487685
0.04754702 -0.07789921 0.25973138
0.05014278 -0.079109341 0.2637662
0.052881569 -0.080450624 0.26823831
0.056128923 -0.082446434 0.27489269
0.058961809 -0.083720662 0.27914125
0.062013775 -0.085213736 0.28411946
0.06441649 -0.085749224 0.28590488
0.066667281 -0.08605615 0.28692824
0.069250807 -0.086761899 0.28928134
0.054537807 -0.066376254 0.22131157
0.069611721 -0.082368851 0.27463403
0.081694968 -0.094053879 0.31359422
0.10040471 -0.11255211 0.37527099
0.13028146 -0.14229877 0.47445229
0.16989163 -0.18092355 0.60323489
0.058508281 -0.060787827 0.20267864
0.14611219 -0.14819047 0.49409634
0.11999822 -0.11887471 0.39635181
0.17781748 -0.17214914 0.57397926
0.10263933 -0.097159304 0.32394835
0.15446351 -0.14303793 0.4769167
0.14977385 -0.1357442 0.45259801
0.0923509 -0.081956424 0.27325892
0.092014402 -0.079991318 0.26670685
0.12962294 -0.11043201 0.36820215
0.1799832 -0.15032974 0.50122911
0.28303444 -0.23185639 0.77305508
0.08708635 -0.069993444 0.23337197
0.23313054 -0.18390289 0.6131686
0.14074637 -0.10900781 0.3634536
0.37773427 -0.2873303 0.95801616
0.24418135 -0.18248232 0.60843211
0.19490215 -0.14314355 0.4772689
0.11038367 -0.079695895 0.26572186
0.21158142 -0.15021363 0.50084203
0.18663985 -0.13033397 0.43455929
0.14270112 -0.098043501 0.32689646
0.089290537 -0.060373735 0.20129797
0.10466506 -0.069663428 0.23227164
0.22398806 -0.14678939 0.48942482
1.6438814 -1.0609859 3.5375371
1.8518378 -1.1773654 3.9255691
1.807128 -1.1320435 3.774457
2.044883 -1.262416 4.2091446
0.047656823 -0.029000813 0.096694447
1.3300475 -0.79797989 2.6606228
0.78931516 -0.46698296 1.5570138
1.8721862 -1.0924695 3.642509
2.2048326 -1.2691911 4.2317343
1.6687496 -0.94779205 3.160126
0.11801711 -0.066147663 0.2205494
1.8998291 -1.0510103 3.504276
2.0077176 -1.0964558 3.6558006
0.16790363 -0.090534918 0.30186132
1.8773769 -0.99964231 3.333005
2.350847 -1.2362961 4.1220551
1.390478 -0.72232616 2.4083786
-0.13647339 -0.069227144 0.23637885
-0.11603995 -0.059588823 0.20346843
-0.11940628 -0.062083967 0.21198818
-0.11792582 -0.062090348 0.21200998
-0.11574115 -0.061721355 0.21075001
-0.11425685 -0.061721124 0.21074924
-0.11329103 -0.062004641 0.21171734
-0.11428162 -0.063380763 0.21641612
-0.11430018 -0.064247683 0.21937627
-0.11213908 -0.063896395 0.2181768
-0.10989599 -0.063487999 0.21678232
-0.10824105 -0.063412659 0.21652505
-0.1090804 -0.064817302 0.22132127
-0.10876922 -0.065569095 0.22388831
-0.10722852 -0.065590918 0.2239628
-0.10401626 -0.064575635 0.2204961
-0.10141909 -0.063917249 0.21824799
-0.10034456 -0.064212978 0.21925776
-0.10055904 -0.065355696 0.22315964
-0.10020306 -0.066158049 0.22589931
-0.099054903 -0.066454828 0.22691268
-0.09677843 -0.06599196 0.22533219
-0.095058866 -0.06589973 0.22501729
-0.093626998 -0.066007212 0.22538427
-0.092419274 -0.066279136 0.22631277
-0.091375239 -0.066680059 0.22768173
-0.091039024 -0.067621045 0.23089474
-0.090544313 -0.068476379 0.23381533
-0.089683987 -0.069081761 0.23588243
-0.087763101 -0.06887766 0.2351855
-0.085268512 -0.068206787 0.23289482
-0.083035506 -0.067722961 0.23124276
-0.081703432 -0.067969263 0.23208377
-0.080372602 -0.06822668 0.23296271
-0.07926137 -0.068685114 0.23452806
-0.077421315 -0.068518043 0.23395759
-0.07574001 -0.068487264 0.23385248
-0.07431823 -0.068695001 0.23456182
-0.073320873 -0.069313407 0.23667338
-0.072001122 -0.069648713 0.23781829
-0.07080885 -0.070126228 0.23944883
-0.069481082 -0.070489593 0.24068952
-0.068386838 -0.071113952 0.24282143
-0.067323238 -0.071803018 0.24517426
-0.066191956 -0.072454251 0.24739796
-0.065024994 -0.073100589 0.24960488
-0.063534349 -0.073408842 0.25065741
-0.061354976 -0.072916195 0.24897528
-0.059180308 -0.072400339 0.24721384
-0.057259146 -0.072172746 0.24643672
-0.055893745 -0.072653331 0.24807771
-0.054891422 -0.073652089 0.251488
-0.05386259 -0.074680679 0.25500014
-0.052512653 -0.075319648 0.25718194
-0.050958663 -0.075701118 0.25848448
-0.049242441 -0.075860918 0.25903013
-0.047496699 -0.075985789 0.25945652
-0.045846999 -0.076280437 0.26046261
-0.044339795 -0.076846607 0.2623958
-0.042954262 -0.077682056 0.26524848
-0.041595947 -0.078644916 0.26853618
-0.039860476 -0.078952424 0.26958621
-0.038232777 -0.079514831 0.27150658
-0.036618821 -0.080166519 0.27373177
-0.035081737 -0.081068262 0.27681082
-0.033384051 -0.081683137 0.27891034
-0.031658377 -0.082302101 0.28102383
-0.029922675 -0.082975805 0.28332418
-0.028145278 -0.08362186 0.28553015
-0.026316762 -0.084203742 0.28751704
-0.024374867 -0.084489606 0.28849313
-0.02245656 -0.084916644 0.28995126
-0.02051449 -0.08533024 0.29136351
-0.018725526 -0.086543381 0.29550582
-0.016896516 -0.087851554 0.29997265
-0.015065025 -0.089518763 0.3056654
-0.013051803 -0.09048187 0.30895394
-0.010998411 -0.091496021 0.31241685
-0.0089001972 -0.092551172 0.31601968
-0.0067684194 -0.093844384 0.3204354
-0.0045254277 -0.094117835 0.32136911
-0.0022614219 -0.094064102 0.32118562
0 -0.094203562 0.32166183
0.002289424 -0.095228851 0.32516271
0.0046459595 -0.096624598 0.32992855
0.0070534786 -0.097796738 0.33393088
0.0094754202 -0.098532788 0.33644414
0.011921762 -0.099177398 0.33864519
0.014444392 -0.10013602 0.34191844
0.016709985 -0.099293381 0.33904123
0.020474786 -0.10645637 0.36349955
0.018453803 -0.085287564 0.29121777
0.018555408 -0.077181421 0.26353905
0.019413544 -0.07340987 0.25066093
0.020680381 -0.071683556 0.24476635
0.0221751 -0.070951983 0.24226837
0.023636427 -0.070225701 0.23978844
0.024909774 -0.069074988 0.2358593
0.026379546 -0.068578757 0.23416491
0.028525822 -0.06979616 0.23832177
0.030765479 -0.071094081 0.24275358
0.033027325 -0.072303958 0.24688473
0.03413469 -0.070991807 0.24240439
0.03539411 -0.070105813 0.23937908
0.036630221 -0.069256276 0.23647831
0.03865771 -0.069911815 0.23871668
0.041268442 -0.071523555 0.24422005
0.044029236 -0.073256031 0.25013566
0.046700172 -0.074711494 0.25510538
0.049624611 -0.07644967 0.26104045
0.05268224 -0.078261562 0.26722723
0.055625375 -0.079784267 0.27242655
0.058185253 -0.080674067 0.27546483
0.060599376 -0.081310891 0.2776393
0.063759163 -0.082877167 0.28298742
0.067689881 -0.085320242 0.29132938
0.069356538 -0.08484979 0.28972301
0.083522789 -0.099261135 0.33893111
0.080614537 -0.093143634 0.31804264
0.073784485 -0.082947947 0.28322908
0.079468071 -0.0869864 0.29701856
0.12041153 -0.12842387 0.43850845
0.08676111 -0.090220951 0.30806303
0.17903569 -0.18163437 0.62019777
0.15326357 -0.15178607 0.51827961
0.1753256 -0.16959739 0.57909703
0.20482649 -0.19363138 0.66116208
0.18006395 -0.16643956 0.56831449
0.16142929 -0.14597106 0.49842399
0.2497813 -0.22105701 0.75480801
0.1373162 -0.11899338 0.40630767
0.24836947 -0.21083583 0.71990734
0.20329115 -0.16911834 0.57746136
0.19936332 -0.1625988 0.5552001
0.12429988 -0.099428214 0.33950162
0.20069286 -0.15750645 0.53781205
0.191586 -0.14757483 0.50390011
0.23152412 -0.17509584 0.59787178
0.17855066 -0.13262205 0.45284328
0.23554885 -0.17188913 0.58692235
0.18522161 -0.13283299 0.45356357
0.20788959 -0.14656255 0.50044364
0.21820866 -0.15127353 0.51652956
0.18978272 -0.12941039 0.44187695
0.34382281 -0.23066688 0.78762132
0.27160713 -0.17932585 0.6123153
0.20488183 -0.13315754 0.45467174
0.2800445 -0.17920741 0.61191088
2.0089076 -1.2660717 4.3230524
2.0504949 -1.2729933 4.3466868
0.55036205 -0.33665249 1.1495135
1.9757279 -1.1910235 4.0667973
0.27066568 -0.16083382 0.54917353
0.22560568 -0.13217033 0.45130089
1.9071152 -1.1017592 3.7620013
0.64124674 -0.36537984 1.247604
2.051686 -1.1532447 3.9378002
2.1695375 -1.2032287 4.1084723
0.85016161 -0.46529692 1.588775
0.0018758953 -0.0010133516 0.0034601295
0.1748285 -0.093230911 0.31834063
0.42539313 -0.22397816 0.76478237
2.3208902 -1.2067209 4.1203971
2.3604059 -1.2121153 4.1388164
2.2540038 -1.1433603 3.9040492
-0.12632066 -0.062533073 0.21879381
-0.11852017 -0.059395898 0.20781732
-0.11688282 -0.059307542 0.20750816
-0.11608783 -0.059649773 0.20870557
-0.11487948 -0.059785664 0.20918104
-0.11399712 -0.060096942 0.21027014
-0.11465396 -0.06123852 0.21426436
-0.11482461 -0.062147394 0.21744438
-0.11431288 -0.062706515 0.21940067
-0.11292136 -0.062791735 0.21969883
-0.11152985 -0.062879317 0.22000527
-0.11025856 -0.063038111 0.22056088
-0.10927102 -0.063365981 0.22170803
-0.10833018 -0.063730836 0.22298458
-0.10698479 -0.063864917 0.22345373
-0.10429224 -0.063186809 0.22108115
-0.10222533 -0.062872946 0.21998298
-0.10093724 -0.063035801 0.22055279
-0.10065103 -0.063839197 0.22336376
-0.099736474 -0.064263247 0.22484742
-0.098540157 -0.0645165 0.22573352
-0.096745476 -0.064379863 0.22525546
-0.095606469 -0.064682268 0.22631352
-0.09467151 -0.065135315 0.22789866
-0.0933147 -0.065308735 0.22850546
-0.092010468 -0.065525688 0.22926453
-0.091135286 -0.0660614 0.23113889
-0.090356477 -0.066687711 0.23333026
-0.089592978 -0.067348741 0.2356431
-0.088142015 -0.067508169 0.23620091
-0.085922457 -0.06707374 0.23468094
-0.083618693 -0.066555269 0.23286687
-0.081912972 -0.066501565 0.23267898
-0.080186769 -0.066428714 0.23242407
-0.078984626 -0.066796012 0.23370919
-0.077309608 -0.066770531 0.23362003
-0.075873174 -0.066954479 0.23426364
-0.074596614 -0.067290813 0.23544045
-0.073534787 -0.067840554 0.23736387
-0.071974345 -0.067945153 0.23772986
-0.070537776 -0.068174459 0.23853216
-0.069147207 -0.068460487 0.23953295
-0.068076231 -0.069085151 0.24171858
-0.067145295 -0.069887616 0.24452625
-0.066187233 -0.070703328 0.24738029
-0.065051153 -0.07136783 0.2497053
-0.063575186 -0.071686 0.25081852
-0.061484847 -0.071309805 0.24950229
-0.059222382 -0.070705988 0.24738961
-0.057188459 -0.070346691 0.24613248
-0.055776153 -0.070753478 0.24755576
-0.054617081 -0.071518108 0.25023112
-0.053575192 -0.072492272 0.25363955
-0.052207746 -0.073077917 0.25568864
-0.050703116 -0.073506512 0.25718823
-0.048878115 -0.073485203 0.25711367
-0.047219668 -0.073722281 0.25794315
-0.045564722 -0.073984019 0.25885895
-0.044165485 -0.074700058 0.26136425
-0.042763799 -0.075474054 0.26407236
-0.041356515 -0.076308064 0.26699045
-0.039688349 -0.076717235 0.26842207
-0.038071238 -0.077270947 0.27035943
-0.03645587 -0.077886663 0.27251372
-0.034861252 -0.078617573 0.27507108
-0.033280134 -0.079466738 0.27804214
-0.031647313 -0.080290861 0.28092563
-0.030040266 -0.081294604 0.28443757
-0.028380882 -0.082290001 0.28792033
-0.026595104 -0.083043866 0.29055801
-0.024648581 -0.083379619 0.29173273
-0.02264058 -0.083549537 0.29232728
-0.020581525 -0.083546214 0.29231563
-0.018719168 -0.084429309 0.29540545
-0.016902426 -0.085764632 0.30007756
-0.015079933 -0.087448142 0.3059679
-0.01307251 -0.08844167 0.3094441
-0.010996046 -0.089272097 0.31234962
-0.0088955807 -0.090274185 0.31585577
-0.0067844056 -0.091799378 0.32119223
-0.0045276508 -0.091895059 0.32152697
-0.0022539943 -0.091495991 0.32013071
0 -0.091407456 0.31982091
0.0022926435 -0.093064867 0.32561997
0.0046594976 -0.094571069 0.33088997
0.0070788194 -0.095783077 0.3351306
0.0094957957 -0.096365288 0.33716762
0.011958324 -0.097084418 0.33968377
0.014261496 -0.096485719 0.33758903
0.018977622 -0.11005074 0.38505098
0.023104586 -0.11723503 0.41018772
0.017151278 -0.077357635 0.27066272
0.017870942 -0.072543196 0.25381774
0.019003257 -0.070126891 0.24536344
0.020276977 -0.068591639 0.23999181
0.021717925 -0.067814752 0.23727363
0.023042237 -0.066810668 0.23376048
0.024362346 -0.065929085 0.23067595
0.02586814 -0.065628797 0.22962528
0.027958067 -0.066758633 0.23357841
0.030144587 -0.067980759 0.23785447
0.032024793 -0.068419829 0.23939069
0.033345439 -0.067679264 0.23679958
0.03460386 -0.066888966 0.23403442
0.036054228 -0.06652467 0.23275982
0.038335618 -0.06765873 0.23672771
0.040793892 -0.068997458 0.24141173
0.043488108 -0.070612192 0.24706143
0.046011027 -0.071835279 0.25134084
0.049152289 -0.073897406 0.25855592
0.052388161 -0.075949401 0.26573554
0.05536408 -0.077496007 0.27114686
0.057342667 -0.077590019 0.27147579
0.059581693 -0.078018993 0.27297676
0.062085006 -0.078756422 0.27555686
0.046122644 -0.056734789 0.19850649
0.052199099 -0.06232084 0.21805125
0.050438695 -0.058498535 0.20467758
0.048876807 -0.055112425 0.1928301
0.072347037 -0.079372168 0.27771127
0.089609161 -0.095723383 0.33492172
0.090368658 -0.09405946 0.32909989
0.1020816 -0.1035945 0.36246157
0.1741855 -0.17245561 0.60339624
0.14596485 -0.1410744 0.4935981
0.16395561 -0.15477724 0.54154223
0.12064397 -0.11130179 0.3894282
0.1027768 -0.092711121 0.32438225
0.13244458 -0.11687607 0.40893176
0.25733763 -0.22225659 0.77764237
0.15202902 -0.12856847 0.44984171
0.20981236 -0.17381378 0.60814828
0.12808385 -0.10398569 0.36383027
0.22029318 -0.17533962 0.61348701
0.25560105 -0.19953012 0.6981259
0.17326713 -0.13270569 0.4643172
0.12874198 -0.096777789 0.33861092
0.25455567 -0.18787514 0.65734684
0.21691447 -0.15723518 0.55014223
0.22789155 -0.16229405 0.56784248
0.22364213 -0.1565218 0.54764622
0.2210305 -0.15207206 0.53207725
0.21174511 -0.14325552 0.50122947
0.17953171 -0.11947046 0.41800916
0.2553716 -0.16719763 0.58499932
0.24005526 -0.15467492 0.54118425
0.23483726 -0.14894854 0.5211485
0.1576263 -0.098438397 0.34442115
1.8521372 -1.1391435 3.9856915
0.6405611 -0.38809228 1.3578765
1.9788003 -1.1812512 4.1330199
0.2589711 -0.15235315 0.53306073
0.18205158 -0.10557124 0.36937788
1.8271799 -1.0446533 3.6550848
0.14836051 -0.083644047 0.29265794
0.13636974 -0.075830579 0.26531976
0.47118929 -0.25847164 0.90435344
0.30559203 -0.1653979 0.57870233
2.2255969 -1.1887269 4.1591768
0.44594833 -0.23509482 0.82256132
0.42180613 -0.21951666 0.7680558
0.39621758 -0.20358972 0.7123298
0.12321801 -0.062522076 0.21875535
1.7898889 -0.89699548 3.1384523
0.55849075 -0.27647212 0.96733433
-0.094409123 -0.045581792 0.16352139
-0.10653713 -0.052072357 0.18680583
-0.11414333 -0.056487434 0.2026446
-0.11314374 -0.056701526 0.20341264
-0.11309821 -0.057405356 0.20593758
-0.11325219 -0.05823005 0.20889612
-0.11377776 -0.059270017 0.21262692
-0.11344917 -0.059886832 0.2148397
-0.11297293 -0.060441319 0.21682888
-0.11234011 -0.060926083 0.21856794
-0.11177991 -0.061464239 0.22049855
-0.11082207 -0.061795838 0.22168812
-0.10968991 -0.062038302 0.22255795
-0.10802955 -0.061984736 0.2223658
-0.10642538 -0.06196231 0.22228533
-0.10406692 -0.061493497 0.2206035
-0.10217466 -0.061290134 0.21987392
-0.10105675 -0.061552152 0.22081393
-0.10064315 -0.062258054 0.22334628
-0.099681087 -0.062641695 0.22472258
-0.098559126 -0.062935606 0.22577697
-0.096879169 -0.062877007 0.22556674
-0.095901586 -0.063279904 0.22701211
-0.094774418 -0.063596092 0.2281464
-0.093311168 -0.063693762 0.22849679
-0.092021458 -0.063915409 0.2292919
-0.091097385 -0.064403459 0.23104276
-0.090310864 -0.065008268 0.23321247
-0.089544587 -0.065650314 0.23551579
-0.088314779 -0.065970346 0.23666388
-0.086401671 -0.065782465 0.23598984
-0.084365949 -0.065492012 0.23494788
-0.082534857 -0.065351978 0.2344455
-0.080529109 -0.065065093 0.23341635
-0.079050802 -0.065201312 0.23390502
-0.077281415 -0.065098122 0.23353481
-0.075955234 -0.065371908 0.23451701
-0.074683011 -0.065705329 0.23571312
-0.073659413 -0.066277616 0.23776616
-0.072007939 -0.066298425 0.23784082
-0.070488058 -0.066444278 0.23836406
-0.069023468 -0.066650629 0.23910432
-0.067899667 -0.067204587 0.24109162
-0.066849627 -0.067861855 0.24344949
-0.065693364 -0.06844303 0.24553442
-0.064475313 -0.068989493 0.24749486
-0.063133247 -0.069429956 0.249075
-0.061429534 -0.069486506 0.24927783
-0.059517674 -0.069304004 0.24862313
-0.057585828 -0.069086462 0.24784271
-0.0560265 -0.069316208 0.24866691
-0.054627385 -0.069765389 0.25027829
-0.053439736 -0.070523575 0.25299826
-0.051956035 -0.070929885 0.25445586
-0.050491333 -0.071392089 0.25611401
-0.048732672 -0.07145749 0.25634861
-0.047187109 -0.071852401 0.25776532
-0.045611981 -0.072232097 0.25912744
-0.044216156 -0.072939202 0.26166415
-0.042753719 -0.07359314 0.2640101
-0.041290596 -0.074305296 0.26656491
-0.039716847 -0.074876711 0.26861483
-0.03807902 -0.075378425 0.27041465
-0.036423501 -0.075896084 0.27227172
-0.034749158 -0.076429859 0.27418661
-0.033218931 -0.077362061 0.27753079
-0.031666733 -0.078356422 0.28109801
-0.030126937 -0.079516083 0.28525823
-0.028465707 -0.080498025 0.28878087
-0.026705233 -0.081328794 0.29176119
-0.024777209 -0.08174523 0.29325512
-0.022768082 -0.081945494 0.29397354
-0.020699127 -0.081948929 0.2939859
-0.018813305 -0.082758732 0.296891
-0.017003711 -0.084148228 0.30187574
-0.015163 -0.085758738 0.30765328
-0.013108455 -0.086495109 0.31029499
-0.011017031 -0.087234005 0.31294572
-0.0089030936 -0.088119544 0.3161225
-0.0067728912 -0.089380778 0.32064712
-0.0045258701 -0.089590795 0.32140052
-0.0022588586 -0.089429393 0.32082155
0 -0.089642569 0.32158625
0.0023019304 -0.091134638 0.32693896
0.004684106 -0.092723116 0.33263749
0.0071148467 -0.093893513 0.33683622
0.0095395204 -0.094418667 0.33872017
0.011861338 -0.093919322 0.33692881
0.01396404 -0.092140622 0.33054787
0.01504216 -0.085075289 0.30520147
0.015632449 -0.077362105 0.277531
0.016453637 -0.07237868 0.2596533
0.017349679 -0.068688288 0.2464143
0.01846768 -0.066467747 0.23844826
0.019719135 -0.065057576 0.23338936
0.02110282 -0.064267062 0.23055345
0.022389425 -0.063314937 0.22713777
0.023736468 -0.06264928 0.22474979
0.02519281 -0.06233729 0.22363053
0.027156522 -0.06324359 0.22688182
0.029309317 -0.064465068 0.2312638
0.031575441 -0.065794125 0.23603167
0.033012096 -0.06534832 0.23443237
0.034350652 -0.064760014 0.2323219
0.035846785 -0.064508781 0.23142061
0.038306709 -0.065938383 0.2365492
0.040878426 -0.06743326 0.24191199
0.043321691 -0.06860514 0.24611601
0.045560021 -0.069374822 0.24887717
0.048582431 -0.071237192 0.25555828
0.051980976 -0.073498361 0.26367009
0.054890651 -0.074936196 0.26882824
0.056651872 -0.074762583 0.2682054
0.058130179 -0.074238852 0.26632652
0.060280066 -0.074578732 0.26754585
0.06157453 -0.073871762 0.26500961
0.069577195 -0.081017584 0.29064476
0.047445074 -0.053667873 0.19252963
0.056236561 -0.061845418 0.221866
0.13808186 -0.14774954 0.53004086
0.15823504 -0.16485813 0.59141666
0.14094827 -0.14308248 0.51329809
0.087091789 -0.086200252 0.30923718
0.1709765 -0.16509879 0.59227997
0.15172248 -0.14301839 0.51306826
0.18096454 -0.16661586 0.59772235
0.21300238 -0.19165629 0.68755317
0.12684914 -0.11160055 0.40035892
0.0092524122 -0.007963215 0.028567459
0.24184883 -0.20372173 0.73083711
0.16745105 -0.13811408 0.49547431
0.20395254 -0.1647875 0.59116334
0.10526763 -0.083352022 0.29901937
0.20315242 -0.15770416 0.56575227
0.22598563 -0.1720556 0.61723709
0.20195721 -0.15086024 0.54120028
0.13085094 -0.095934391 0.34415773
0.12003053 -0.086401314 0.30995846
0.22395286 -0.1583288 0.5679931
0.17252286 -0.11982932 0.42987904
0.18352495 -0.12527326 0.44940883
0.15447102 -0.10365406 0.37185147
0.12427447 -0.082001522 0.29417458
0.2287879 -0.14848907 0.53269392
0.15357676 -0.0980675 0.3518101
0.056241769 -0.035343513 0.12679231
0.071676925 -0.044339489 0.15906473
1.4221591 -0.86621577 3.107487
1.8179705 -1.0905213 3.9121668
1.8563557 -1.0969268 3.9351461
1.9548386 -1.1381338 4.0829725
0.1019014 -0.05846855 0.20975173
0.19800626 -0.11198817 0.40174952
1.7593925 -0.98106027 3.5194831
2.0565128 -1.1308115 4.0567045
2.0355077 -1.1039292 3.9602661
0.12625182 -0.067545623 0.24231505
0.55512035 -0.29303342 1.0512364
2.0740075 -1.0804086 3.8758881
2.1528854 -1.1069334 3.9710438
2.2317584 -1.1327755 4.0637507
0.17708805 -0.088746957 0.31837332
2.1878309 -1.0827173 3.8841705
0.010718876 -0.0052390858 0.018794842
1.6027533 -0.77382737 2.7760501
-0.11279319 -0.053079147 0.19536354
-0.10896576 -0.051911067 0.19106428
-0.11121557 -0.053645156 0.19744679
-0.11093764 -0.054188453 0.19944645
-0.11152679 -0.055174645 0.20307623
-0.11228169 -0.056269508 0.20710601
-0.11302108 -0.057385314 0.21121284
-0.11248099 -0.057872571 0.21300624
