# .PCD v0.7 - Point Cloud Data file format
VERSION 0.7
FIELDS x y z
SIZE 4 4 4
TYPE F F F
COUNT 1 1 1
WIDTH 1367
HEIGHT 1
VIEWPOINT 0 0 0 1 0 0 0
POINTS 1367
DATA ascii
0.0068479879 -0.13384181 0.32420239
0.0087232143 -0.1278694 0.30973554
0.010239538 -0.12007716 0.29086056
0.014564495 -0.14232928 0.34476143
0.017536331 -0.14688949 0.35580757
0.020112401 -0.14740899 0.35706592
0.021406224 -0.13945934 0.33780962
0.024099823 -0.14130707 0.34228536
0.027382871 -0.14596085 0.35355809
0.032462515 -0.15861744 0.38421595
0.032293361 -0.14565317 0.35281283
0.037308969 -0.15625548 0.37849459
0.036736552 -0.14360091 0.34784168
0.042216625 -0.15470828 0.37474686
0.042793602 -0.14759782 0.35752332
0.045435403 -0.14800349 0.35850593
0.055638477 -0.17170055 0.41590691
0.053561222 -0.15702562 0.3803601
0.054771002 -0.15292604 0.37042978
0.063355535 -0.16885422 0.40901229
0.06791091 -0.17312579 0.41935921
0.067838177 -0.16573451 0.40145546
0.072676145 -0.17045191 0.41288236
0.073767737 -0.16635782 0.40296528
0.081921667 -0.17790373 0.43093273
0.074199468 -0.15537918 0.37637192
0.08555495 -0.17298052 0.41900733
0.086720735 -0.16949299 0.41055956
0.097605191 -0.18461256 0.4471834
0.086703293 -0.15886773 0.38482216
0.080592632 -0.14319618 0.34686133
0.081789121 -0.14104791 0.34165758
0.098056138 -0.16426945 0.39790669
0.087700389 -0.14283974 0.34599793
0.097416446 -0.15437628 0.37394267
0.10173314 -0.15697442 0.38023609
0.09815149 -0.14756465 0.35744298
0.10837704 -0.15886468 0.3848148
0.10441065 -0.14931759 0.36168906
0.087161109 -0.12168121 0.29474601
0.10974874 -0.14965153 0.36249796
0.12660515 -0.16871308 0.40867037
0.11042295 -0.14387882 0.34851485
0.12568577 -0.16020581 0.38806343
0.11922888 -0.14874202 0.36029488
0.11037131 -0.13482332 0.3265799
0.14725579 -0.17620829 0.42682591
0.12837052 -0.15053773 0.36464459
0.16774568 -0.19285515 0.46714926
0.15427452 -0.1739566 0.4213717
0.12939732 -0.14315267 0.34675595
1.4270569 -1.5495214 3.7533755
0.73727196 -0.78598642 1.9038796
1.6888591 -1.7682979 4.2833133
1.73124 -1.7808712 4.3137693
0.15855074 -0.16028406 0.38825294
1.6433541 -1.6331617 3.9559758
1.7997757 -1.7588029 4.260314
0.35255679 -0.33888263 0.82086879
1.7772932 -1.6808054 4.071382
1.3594797 -1.2652671 3.0648317
1.0930363 -1.0013933 2.4256556
0.28378922 -0.25599566 0.62009329
1.0904198 -0.96872348 2.3465199
0.19707699 -0.17246905 0.41776842
1.6972796 -1.4635061 3.545022
1.6662565 -1.4159334 3.4297881
0.28309369 -0.23712766 0.5743897
0.38849366 -0.32083049 0.77714145
0.026403476 -0.02150199 0.05208385
0.85057056 -0.68318373 1.6548628
0.34541973 -0.27369413 0.66296387
0.091437139 -0.071484424 0.17315531
2.1473434 -1.6566775 4.0129375
0.55118227 -0.41971508 1.0166676
0.14574923 -0.10956244 0.26539096
0.40713981 -0.30218059 0.73196608
0.15605696 -0.11437819 0.27705604
1.8182299 -1.3161756 3.1881464
0.43976071 -0.31445077 0.76168793
-0.10053474 -0.070658498 0.17413129
-0.1405568 -0.10000665 0.2464571
-0.17757258 -0.1279228 0.31525385
-0.075122714 -0.054803237 0.13505748
-0.10632877 -0.078563027 0.19361128
-0.15639645 -0.11705721 0.28847662
-0.13813302 -0.10474806 0.25814185
-0.13721149 -0.10543656 0.25983861
-0.11997747 -0.0934394 0.23027273
-0.11920927 -0.09411291 0.23193251
-0.11682191 -0.093509093 0.23044446
-0.11487477 -0.093245596 0.2297951
-0.11457501 -0.094330885 0.23246968
-0.11166904 -0.093270808 0.22985725
-0.11082505 -0.093927123 0.23147468
-0.10709658 -0.092121884 0.22702582
-0.10498532 -0.091674104 0.22592232
-0.10140023 -0.089905776 0.22156444
-0.099453732 -0.089557745 0.22070675
-0.098199897 -0.089832298 0.22138336
-0.098370627 -0.091439918 0.22534516
-0.097615682 -0.092225663 0.22728157
-0.097360142 -0.093517303 0.2304647
-0.096438825 -0.094202392 0.23215304
-0.095650256 -0.095043011 0.23422468
-0.093800172 -0.094839841 0.23372398
-0.091621205 -0.094290949 0.23237129
-0.090078413 -0.094388708 0.23261221
-0.08966434 -0.095694736 0.23583078
-0.089307934 -0.097112745 0.23932533
-0.088838287 -0.09845978 0.24264498
-0.087546386 -0.098930471 0.24380495
-0.085971341 -0.099093631 0.24420704
-0.084009714 -0.098808765 0.24350503
-0.081817925 -0.098235682 0.2420927
-0.079474039 -0.097451709 0.24016069
-0.077768438 -0.097433344 0.24011542
-0.07593596 -0.097251661 0.23966767
-0.07395868 -0.096872047 0.23873216
-0.071807101 -0.096241191 0.23717746
-0.070034727 -0.096100613 0.23683104
-0.068559639 -0.096371062 0.23749754
-0.067590199 -0.097383581 0.2399928
-0.066380978 -0.098093688 0.24174279
-0.065206006 -0.098893106 0.24371289
-0.063770175 -0.099329427 0.24478814
-0.062248241 -0.099652141 0.24558343
-0.06051388 -0.099643499 0.24556215
-0.059271786 -0.10046878 0.24759598
-0.058182705 -0.10161129 0.2504116
-0.057136863 -0.1029031 0.25359514
-0.055535816 -0.10324606 0.25444034
-0.053436484 -0.10265466 0.25298285
-0.051197637 -0.1017452 0.2507416
-0.049361486 -0.10159964 0.2503829
-0.04791005 -0.1022645 0.25202137
-0.046755321 -0.10363816 0.25540662
-0.045576889 -0.10506709 0.25892809
-0.044283975 -0.10634018 0.2620655
-0.042885244 -0.10745882 0.26482227
-0.041424144 -0.10851578 0.26742706
-0.039839096 -0.10933323 0.2694416
-0.038179018 -0.11001624 0.27112481
-0.036505867 -0.11073148 0.27288747
-0.034603 -0.11079069 0.27303335
-0.032701738 -0.11086232 0.2732099
-0.030897303 -0.11129166 0.27426794
-0.029295916 -0.11255838 0.27738968
-0.027831428 -0.11456963 0.28234619
-0.026342504 -0.11678196 0.28779829
-0.024602907 -0.11815912 0.29119217
-0.022626005 -0.11854336 0.29213908
-0.02061924 -0.11883234 0.29285127
-0.018585974 -0.11901587 0.29330355
-0.016559012 -0.11929067 0.29398078
-0.014519476 -0.11954047 0.29459637
-0.012477913 -0.11985406 0.29536918
-0.01054936 -0.12159568 0.29966128
-0.0086091738 -0.12404051 0.3056863
-0.0065609859 -0.12604043 0.31061491
-0.0043932064 -0.12659416 0.31197953
-0.0022075269 -0.1272237 0.31353098
0 -0.12842742 0.31649745
0.0022529222 -0.12983991 0.31997842
0.0045388713 -0.13079162 0.3223238
0.0068414398 -0.13142811 0.32389235
0.0092145493 -0.13276272 0.3271814
0.011766142 -0.13562074 0.33422473
0.014414286 -0.1384535 0.34120578
0.016949102 -0.13954385 0.34389284
0.019402925 -0.13977814 0.34447023
0.021788435 -0.13952293 0.34384125
0.024574619 -0.14162789 0.3490288
0.027611936 -0.1446659 0.35651568
0.030881276 -0.14831191 0.36550096
0.033723146 -0.1495019 0.36843356
0.036411203 -0.14988875 0.36938688
0.039114714 -0.15028337 0.37035939
0.042262562 -0.15222916 0.37515461
0.045664873 -0.1548087 0.38151166
0.049152311 -0.15737417 0.38783401
0.052517384 -0.15929843 0.39257622
0.056055844 -0.1615299 0.39807543
0.059749767 -0.16397549 0.40410236
0.063133672 -0.16538662 0.40757996
0.066449597 -0.16650471 0.41033539
0.070441633 -0.16915318 0.41686234
0.074624702 -0.17203017 0.42395237
0.077822298 -0.17250144 0.42511377
0.080035612 -0.17083685 0.42101154
0.081146248 -0.16702151 0.41160899
0.082054943 -0.16306801 0.40186599
0.083720699 -0.16083245 0.39635661
0.085904613 -0.15970437 0.39357659
0.087012284 -0.15670852 0.3861936
0.088583574 -0.15470392 0.38125342
0.08995644 -0.15248087 0.37577495
0.092508711 -0.1523269 0.37539548
0.095177263 -0.15236764 0.37549588
0.097861938 -0.15243128 0.37565273
0.10047334 -0.15238045 0.37552747
0.10302629 -0.15224586 0.37519577
0.10495832 -0.15122336 0.37267593
0.10692947 -0.15030573 0.37041453
0.10881374 -0.1493126 0.36796704
0.11272263 -0.15107921 0.37232062
0.11593754 -0.15185651 0.37423626
0.119736 -0.15334666 0.37790856
0.12082387 -0.15137598 0.37305203
0.12366094 -0.15163404 0.37368798
0.13037917 -0.15654133 0.38578156
0.14045605 -0.16519861 0.40711662
0.13659066 -0.15743926 0.38799441
0.17822321 -0.20139845 0.49632773
0.16503897 -0.18291326 0.45077273
0.085116267 -0.092554756 0.22809258
0.032264128 -0.034434061 0.084859543
0.08937595 -0.093652636 0.23079823
0.29033288 -0.2987929 0.73634732
1.4597037 -1.4758828 3.6371763
0.55310279 -0.54959136 1.3544168
1.3300091 -1.299166 3.2016737
0.046882495 -0.045032024 0.11097724
0.62790471 -0.59323382 1.4619697
1.7726587 -1.6477658 4.0607657
0.01707308 -0.015618285 0.038489815
0.30120128 -0.27123073 0.66842294
0.037428219 -0.03318546 0.081782483
0.23642594 -0.2064492 0.50877488
0.47539875 -0.40892649 1.0077614
1.8384358 -1.5581224 3.839848
0.2040827 -0.17045869 0.42007962
0.29771435 -0.24511155 0.60405463
1.7351637 -1.4084588 3.4710157
1.8559515 -1.4855804 3.6610749
1.9751308 -1.5593191 3.8427973
1.6888539 -1.3152927 3.2414167
1.9023744 -1.4618295 3.6025434
0.43651906 -0.33101803 0.81576318
1.8320028 -1.3711894 3.3791687
0.64626312 -0.47750378 1.1767637
1.0197216 -0.7439034 1.8332808
0.12244301 -0.08820761 0.21737945
1.9288456 -1.3723804 3.3821039
0.83731019 -0.58848387 1.4502639
-0.13101259 -0.09047775 0.22692046
-0.1830181 -0.12795335 0.32091019
-0.15450391 -0.10936847 0.27429885
-0.10635134 -0.076235719 0.19120109
-0.13377035 -0.097119831 0.24357894
-0.13624354 -0.10020002 0.25130418
-0.13675579 -0.10190014 0.25556809
-0.12053749 -0.091013014 0.22826292
-0.1202138 -0.091995217 0.2307263
-0.11876576 -0.092132114 0.23106961
-0.11645221 -0.091592073 0.2297152
-0.11517784 -0.091865659 0.23040137
-0.11308578 -0.09148556 0.22944808
-0.10925139 -0.089664504 0.2248808
-0.10674165 -0.088893019 0.2229459
-0.10467979 -0.088477053 0.22190265
-0.10335798 -0.088683479 0.22242036
-0.10010583 -0.087214485 0.21873613
-0.098093271 -0.086796425 0.21768761
-0.097812258 -0.087921552 0.22050945
-0.098756693 -0.090202272 0.22622955
-0.098562479 -0.0915007 0.22948603
-0.097056732 -0.091604553 0.22974648
-0.095622942 -0.091780983 0.230189
-0.094523437 -0.092289895 0.23146535
-0.092768125 -0.09216512 0.23115242
-0.09079349 -0.091814086 0.23027202
-0.089162812 -0.091804445 0.23024784
-0.088691011 -0.093009755 0.23327078
-0.088362955 -0.09441413 0.23679298
-0.087952308 -0.095782585 0.24022512
-0.086745672 -0.096320845 0.24157509
-0.08505515 -0.096332595 0.24160455
-0.08293581 -0.095849231 0.24039227
-0.080794409 -0.095319711 0.23906422
-0.078527018 -0.094615839 0.23729889
-0.076890096 -0.094657533 0.23740347
-0.075238958 -0.094683193 0.23746781
-0.07361231 -0.094741531 0.23761413
-0.07157819 -0.094265953 0.23642136
-0.069809891 -0.094126157 0.23607075
-0.067889147 -0.093768962 0.23517489
-0.066455834 -0.094084002 0.23596501
-0.064960651 -0.094325341 0.23657031
-0.063950799 -0.095302656 0.23902144
-0.062995449 -0.096416213 0.24181427
-0.062060434 -0.097623624 0.24484248
-0.060670681 -0.098164268 0.24619843
-0.059422981 -0.098973326 0.24822757
-0.058097757 -0.099698372 0.25004598
-0.056759045 -0.10044485 0.2519182
-0.055046976 -0.10055748 0.25220066
-0.053110454 -0.10025393 0.25143936
-0.050913103 -0.099420108 0.2493481
-0.04917128 -0.09944801 0.24941809
-0.047700625 -0.10004674 0.2509197
-0.04650259 -0.1012853 0.25402606
-0.045311686 -0.10263909 0.2574214
-0.044011332 -0.10384747 0.26045203
-0.0427058 -0.10514816 0.26371419
-0.041359246 -0.10646149 0.26700807
-0.039812777 -0.10736082 0.26926363
-0.038094345 -0.10786316 0.27052349
-0.03626097 -0.1080758 0.2710568
-0.034321163 -0.10797722 0.27080953
-0.032361198 -0.10779988 0.27036479
-0.030616961 -0.10836393 0.27177942
-0.029016225 -0.10954493 0.27474141
-0.02754036 -0.11139975 0.27939335
-0.026043506 -0.11344849 0.28453165
-0.024373613 -0.1150221 0.28847829
-0.022503108 -0.11584903 0.29055229
-0.020558769 -0.11642325 0.2919924
-0.018583626 -0.11693124 0.29326645
-0.016542016 -0.11709574 0.29367903
-0.014470021 -0.11706142 0.29359296
-0.012436877 -0.11738233 0.2943978
-0.010520981 -0.11915956 0.29885516
-0.0086145401 -0.12195925 0.30587682
-0.0065548886 -0.12373333 0.31032628
-0.0043757125 -0.12389719 0.31073722
-0.0021983045 -0.12448887 0.31222117
0 -0.12587418 0.31569555
0.0022524009 -0.12755232 0.31990436
0.0045314333 -0.12830637 0.32179558
0.006850075 -0.12930542 0.32430121
0.0092667807 -0.13119327 0.32903597
0.011832154 -0.13400978 0.33609986
0.014491373 -0.13677315 0.34303051
0.017006902 -0.1375846 0.34506559
0.019375963 -0.13715637 0.34399158
0.021823276 -0.13731566 0.34439108
0.024695432 -0.13984896 0.35074466
0.027880862 -0.14353445 0.35998797
0.031202024 -0.14724621 0.36929715
0.033890259 -0.14762984 0.37025934
0.036320396 -0.14691466 0.36846563
0.03876688 -0.14635658 0.36706594
0.042048741 -0.14882492 0.37325656
0.045651454 -0.15207168 0.38139954
0.049227897 -0.15487504 0.38843045
0.052371845 -0.15609424 0.39148825
0.056062125 -0.15873846 0.39812005
0.059894577 -0.16151425 0.40508175
0.063278578 -0.16288333 0.40851542
0.067108497 -0.16523129 0.41440421
0.070735827 -0.16690558 0.41860336
0.074378893 -0.16848153 0.42255589
0.076958932 -0.16762096 0.42039752
0.078624696 -0.16490655 0.41358969
0.079547293 -0.16088295 0.40349844
0.080491796 -0.15717962 0.3942104
0.081792489 -0.15439557 0.38722792
0.084128991 -0.15368327 0.38544148
0.086276278 -0.15268067 0.38292691
0.088173442 -0.15130961 0.37948826
0.090151541 -0.15015399 0.37658995
0.09266106 -0.14992423 0.37601373
0.095520034 -0.15025696 0.37684819
0.097680904 -0.14950323 0.37495786
0.099986024 -0.14900415 0.3737061
0.10177094 -0.14777529 0.37062413
0.10328712 -0.14622742 0.36674201
0.10494665 -0.14495304 0.36354584
0.10792118 -0.1455124 0.36494875
0.11104861 -0.1462471 0.3667914
0.11506436 -0.14809172 0.37141773
0.11854206 -0.14917725 0.37414026
0.11948147 -0.14709075 0.36890724
0.12140948 -0.14628418 0.36688438
0.1241769 -0.14650156 0.36742955
0.14359821 -0.165957 0.41622427
0.13313359 -0.15078574 0.37817439
0.165741 -0.18403584 0.46156648
0.16068825 -0.17499411 0.43888959
0.1717422 -0.18350326 0.46023074
1.5928988 -1.6704639 4.1895652
0.010411088 -0.010719538 0.026884869
0.52059555 -0.52644747 1.3203434
0.12033455 -0.11955235 0.29984027
0.26234555 -0.25614646 0.64242172
0.98129672 -0.94187003 2.3622334
0.14781097 -0.13950767 0.34988865
0.49884546 -0.46310434 1.1614772
0.30704233 -0.28044596 0.70336545
1.0344802 -0.9298743 2.3321481
1.5175383 -1.3427721 3.3677058
1.497422 -1.3045883 3.2719402
0.50968468 -0.43732095 1.0968118
1.7828878 -1.5069257 3.7794073
1.5324033 -1.276165 3.2006536
0.57842892 -0.47472659 1.190626
1.4184107 -1.1474838 2.8779182
0.79420972 -0.63346034 1.5887344
2.1205981 -1.6678942 4.1831203
0.87416333 -0.67812908 1.7007645
1.7984095 -1.3762568 3.4516866
2.1370835 -1.613626 4.0470142
0.10631438 -0.079217486 0.19867943
1.504196 -1.1062578 2.7745223
1.974548 -1.4335595 3.595403
0.23373985 -0.1675515 0.42022333
1.444582 -1.0225742 2.5646415
1.5049804 -1.0521761 2.6388838
1.4506018 -1.0017906 2.512516
-0.1599268 -0.10849121 0.27700132
-0.095445447 -0.065547682 0.1673573
-0.15568098 -0.10825121 0.27638856
-0.13046743 -0.091867566 0.23455758
-0.10181694 -0.072612703 0.18539581
-0.12467324 -0.090067826 0.22996248
-0.11809544 -0.086438388 0.22069576
-0.11924966 -0.08844699 0.22582413
-0.11821296 -0.088862911 0.22688608
-0.11649382 -0.088770203 0.22664937
-0.11565913 -0.089358233 0.22815076
-0.11408199 -0.089381143 0.22820924
-0.11213674 -0.08911217 0.22752251
-0.10890149 -0.087795429 0.22416057
-0.10612264 -0.086813316 0.22165301
-0.10430162 -0.086597122 0.22110103
-0.10209094 -0.086045951 0.21969378
-0.098570481 -0.084356911 0.21538129
-0.097237259 -0.08451619 0.21578798
-0.097646818 -0.086219348 0.22013648
-0.099144034 -0.088953301 0.22711687
-0.098309211 -0.089650258 0.22889633
-0.097050205 -0.089977175 0.22973104
-0.095438913 -0.089983031 0.22974598
-0.094386235 -0.090524852 0.23112938
-0.09252499 -0.090296596 0.23054658
-0.090346918 -0.089745454 0.2291394
-0.0884213 -0.089429617 0.22833301
-0.087652758 -0.090294018 0.23053999
-0.087430373 -0.091764271 0.23429388
-0.087132566 -0.093210399 0.23798613
-0.085867144 -0.093657814 0.23912849
-0.084095657 -0.093560107 0.23887901
-0.081987865 -0.093076631 0.23764463
-0.080012977 -0.092727028 0.236752
-0.077853471 -0.09214405 0.23526354
-0.075960703 -0.091858275 0.23453389
-0.07414268 -0.091652207 0.23400776
-0.072858684 -0.092111915 0.23518148
-0.071275093 -0.092205428 0.23542026
-0.069827721 -0.092483811 0.23613101
-0.067830496 -0.092029758 0.2349717
-0.066130579 -0.091966473 0.23481013
-0.064424403 -0.091890998 0.23461743
-0.063534759 -0.093006849 0.23746645
-0.062935062 -0.094618946 0.24158248
-0.062401503 -0.096422806 0.2461881
-0.061078958 -0.097075745 0.24785522
-0.059667088 -0.097620972 0.24924728
-0.058058161 -0.097867057 0.24987559
-0.056490276 -0.098199867 0.25072533
-0.05472872 -0.098206624 0.25074258
-0.052828278 -0.097956307 0.25010344
-0.050878566 -0.097594216 0.24917896
-0.049243484 -0.097831316 0.24978434
-0.047736712 -0.098350346 0.25110954
-0.046397861 -0.099268563 0.25345394
-0.045122255 -0.10040099 0.25634524
-0.043887403 -0.10172221 0.25971863
-0.042587515 -0.10300104 0.26298374
-0.041274887 -0.10436392 0.26646346
-0.039721984 -0.10522012 0.26864955
-0.037912048 -0.10544705 0.26922894
-0.03603325 -0.10549625 0.26935455
-0.034089036 -0.10534876 0.26897797
-0.032207385 -0.10538862 0.26907974
-0.030509355 -0.10607187 0.27082422
-0.028915411 -0.10723221 0.27378684
-0.02738611 -0.10881518 0.27782848
-0.025779935 -0.11031273 0.28165206
-0.024129085 -0.11185278 0.28558415
-0.022294914 -0.11274578 0.28786418
-0.020474726 -0.11389517 0.29079881
-0.018583795 -0.1148627 0.29326913
-0.016602548 -0.11544415 0.29475367
-0.014551366 -0.11563595 0.29524338
-0.012537516 -0.11623781 0.29678005
-0.010597347 -0.11790014 0.30102435
-0.0086514056 -0.12031336 0.30718583
-0.0065630758 -0.12169517 0.31071386
-0.0043773283 -0.12174924 0.31085193
-0.002198244 -0.12228215 0.31221256
0 -0.12348209 0.31527627
0.0022375418 -0.12446818 0.31779397
0.0044984892 -0.12511916 0.31945607
0.0068094344 -0.12626325 0.32237718
0.0092204968 -0.12822759 0.32739258
0.01180746 -0.13136318 0.33539838
0.014408461 -0.13358371 0.34106788
0.016880486 -0.13414487 0.34250066
0.019277098 -0.13404135 0.34223634
0.021730794 -0.13431367 0.34293163
0.024642222 -0.13707778 0.34998897
0.027957609 -0.14138213 0.3609789
0.031207332 -0.1446647 0.36936003
0.033810634 -0.14467622 0.36938944
0.036262583 -0.14408469 0.36787912
0.038579132 -0.14306992 0.36528823
0.042037729 -0.14615257 0.37315884
0.045929354 -0.15028948 0.38372126
0.049641572 -0.15341231 0.39169455
0.053025585 -0.15524551 0.39637509
0.056104969 -0.1560481 0.3984243
0.060011704 -0.15896586 0.40587392
0.063323751 -0.16011468 0.40880713
0.06725876 -0.16267025 0.41533208
0.070471928 -0.16333982 0.41704163
0.073815599 -0.1642462 0.41935578
0.076449931 -0.16356519 0.41761705
0.077554546 -0.15978304 0.40796036
0.078410968 -0.15577795 0.39773452
0.079665817 -0.15281332 0.39016518
0.081652343 -0.15140304 0.38656443
0.084192283 -0.15107679 0.38573146
0.085269086 -0.14822751 0.37845662
0.087235697 -0.14705083 0.37545231
0.089228176 -0.14598569 0.37273279
0.092620589 -0.14720638 0.37584949
0.095742136 -0.14794075 0.37772447
0.098255366 -0.14772083 0.37716299
0.099792607 -0.14608376 0.37298319
0.10117704 -0.14431269 0.36846128
0.10327881 -0.14362776 0.36671251
0.10479172 -0.1421773 0.36300912
0.10819107 -0.14329442 0.36586142
0.11210985 -0.14503156 0.37029669
0.11682766 -0.14769989 0.3771095
0.11867934 -0.14670664 0.37457356
0.11946128 -0.14446294 0.36884493
0.12087585 -0.14306352 0.36527184
0.12561652 -0.14557697 0.37168926
0.15434305 -0.17521778 0.44736859
0.10705385 -0.11910211 0.30409321
0.11249476 -0.12270133 0.31328285
0.12956358 -0.13860115 0.35387847
1.622309 -1.7027262 4.3474255
0.0072555086 -0.0074741407 0.019083085
0.36388549 -0.36803511 0.93967253
1.5399346 -1.5296829 3.9056087
0.28080785 -0.27404481 0.69969517
0.091388494 -0.087649755 0.22378862
1.6841989 -1.5879196 4.0542994
1.7980926 -1.6670474 4.25633
0.041799013 -0.038117409 0.097321913
1.6655123 -1.4943191 3.8153172
0.24982014 -0.22058405 0.56319839
0.30745167 -0.26722929 0.68229371
0.12097702 -0.1035325 0.26434067
0.72928792 -0.61467034 1.5693853
0.57305473 -0.47578254 1.2147748
0.0040519652 -0.0033146981 0.008463135
0.17612529 -0.14199066 0.36253265
0.0054385355 -0.0043218639 0.011034646
0.42959556 -0.33658022 0.85936147
0.025064847 -0.019365098 0.049443252
2.148829 -1.6374429 4.1807432
0.094800733 -0.071263492 0.181951
0.11676399 -0.086603373 0.22111699
0.027750878 -0.020311886 0.051860608
2.20995 -1.5965366 4.0763006
0.59704936 -0.42579716 1.0871516
1.1402762 -0.80291605 2.0500169
2.1843545 -1.518869 3.8779984
1.8674051 -1.2824507 3.2743716
0.32240722 -0.21871474 0.55842566
-0.080801383 -0.05382644 0.13995211
-0.10348549 -0.069788702 0.18145497
-0.13735217 -0.093785614 0.24384847
-0.098428257 -0.068058662 0.17695676
-0.12029088 -0.084242024 0.21903452
-0.11973255 -0.084939986 0.22084928
-0.11696182 -0.08406616 0.21857728
-0.11700938 -0.085221685 0.2215817
-0.11613153 -0.085725322 0.22289118
-0.11482813 -0.085924327 0.22340862
-0.11409664 -0.086562753 0.22506857
-0.11248322 -0.086540632 0.22501105
-0.11079796 -0.086461827 0.22480616
-0.10856131 -0.08594422 0.22346035
-0.10684314 -0.085827887 0.22315785
-0.10403769 -0.084821627 0.22054154
-0.10039135 -0.083088897 0.21603633
-0.097042933 -0.081553243 0.21204354
-0.095638476 -0.081628785 0.21223995
-0.096250653 -0.083455279 0.21698895
-0.097392395 -0.085807264 0.22310425
-0.097643688 -0.087438978 0.22734679
-0.096970454 -0.088283367 0.22954227
-0.095994122 -0.088875756 0.23108253
-0.095176272 -0.089637838 0.23306398
-0.093287535 -0.089400388 0.23244661
-0.090819515 -0.088589415 0.23033801
-0.088490076 -0.087886579 0.2285106
-0.087354779 -0.088365674 0.22975628
-0.087011941 -0.089679614 0.2331726
-0.086634472 -0.09100768 0.23662567
-0.085424311 -0.091495976 0.23789527
-0.083823487 -0.091577001 0.23810594
-0.081825443 -0.091218509 0.23717383
-0.079855248 -0.090876773 0.2362853
-0.077520408 -0.09009669 0.23425706
-0.075429536 -0.089572422 0.23289388
-0.073604226 -0.089347199 0.23230828
-0.072486259 -0.089989893 0.23397936
-0.071276806 -0.090546243 0.23542589
-0.070113406 -0.091188997 0.2370971
-0.068263292 -0.090948194 0.23647098
-0.066497825 -0.090810925 0.2361141
-0.064809948 -0.090775311 0.23602149
-0.063953482 -0.091932975 0.23903146
-0.063326754 -0.093492374 0.24308603
-0.062624127 -0.095023245 0.24706638
-0.061094128 -0.09535031 0.24791674
-0.059542425 -0.095661752 0.24872653
-0.057903171 -0.095847122 0.24920851
-0.056360357 -0.096208729 0.25014868
-0.054632846 -0.096268192 0.25030333
-0.052746933 -0.096043207 0.24971834
-0.050829235 -0.095742837 0.24893735
-0.049177177 -0.095939241 0.24944802
-0.047623724 -0.096349686 0.25051519
-0.046158578 -0.096977226 0.25214684
-0.044881556 -0.098066024 0.25497779
-0.043669999 -0.09939456 0.25843206
-0.042548459 -0.1010524 0.26274258
-0.041264046 -0.10245657 0.26639348
-0.039681174 -0.10321812 0.26837355
-0.037833285 -0.10333198 0.26866961
-0.035906386 -0.10323068 0.26840624
-0.034050062 -0.1033323 0.26867044
-0.032245152 -0.10361108 0.26939529
-0.030577065 -0.10439184 0.27142528
-0.028910011 -0.10528044 0.27373573
-0.027250174 -0.10632416 0.27644944
-0.025558613 -0.10739514 0.27923408
-0.023866961 -0.1086442 0.28248173
-0.022128247 -0.10988667 0.28571221
-0.020436924 -0.1116365 0.29026189
-0.018651919 -0.1132066 0.29434422
-0.016707314 -0.11407944 0.29661366
-0.014674437 -0.11451283 0.29774052
-0.012670523 -0.11535434 0.29992849
-0.010703729 -0.11693803 0.30404618
-0.0087108519 -0.11895736 0.30929658
-0.0065896939 -0.11998715 0.31197405
-0.0044038133 -0.12027895 0.31273279
-0.0022121347 -0.12083765 0.31418544
0 -0.12176122 0.31658676
0.0022386748 -0.1222874 0.31795487
0.004491013 -0.12266058 0.31892517
0.0067861374 -0.12356404 0.32127422
0.0091681033 -0.1252017 0.32553223
0.011700041 -0.12782273 0.33234707
0.014313895 -0.13031586 0.33882937
0.016864609 -0.13160396 0.34217852
0.019328916 -0.13198003 0.34315631
0.021876683 -0.13277909 0.34523392
0.024865624 -0.13582824 0.3531619
0.027950024 -0.13879703 0.36088094
0.031123525 -0.14167663 0.36836809
0.033751663 -0.14182164 0.36874515
0.036184635 -0.14118443 0.36708835
0.038780827 -0.1412266 0.36719799
0.042242885 -0.14421961 0.37497997
0.046320595 -0.1488387 0.38698995
0.050071806 -0.15195376 0.39508924
0.053764444 -0.1545725 0.40189818
0.056759775 -0.15502487 0.40307432
0.060654674 -0.15777408 0.41022247
0.064165883 -0.15932068 0.41424376
0.067733571 -0.16086693 0.41826409
0.070489638 -0.16043706 0.41714638
0.07308691 -0.15969461 0.41521597
0.074443251 -0.15640213 0.40665531
0.076117501 -0.15399672 0.40040109
0.077826299 -0.15183051 0.3947688
0.079663344 -0.15005527 0.39015308
0.081969365 -0.14925228 0.38806528
0.084094718 -0.14818278 0.38528448
0.085790977 -0.14644763 0.38077298
0.086427502 -0.14306346 0.37197393
0.089238293 -0.14337157 0.37277505
0.092596993 -0.1445172 0.37575373
0.09639027 -0.14625858 0.38028148
0.098965764 -0.14610799 0.37988991
0.10136919 -0.14571796 0.37887579
0.10294215 -0.14418475 0.37488937
0.10457302 -0.14280726 0.37130782
0.10630433 -0.14163083 0.36824897
0.10897592 -0.1417333 0.36851546
0.11285067 -0.14335947 0.37274355
0.11830236 -0.14686944 0.38186973
0.11857673 -0.14393872 0.37424967
0.1226088 -0.1455977 0.37856308
0.11848626 -0.13770851 0.35805076
0.10326194 -0.11751404 0.30554384
0.11133687 -0.12411767 0.3227137
0.11073134 -0.12097378 0.3145394
0.10581719 -0.11333831 0.2946867
0.17604853 -0.18493526 0.48084325
1.5563171 -1.6040317 4.1705828
0.26413435 -0.26719096 0.69471323
0.30905908 -0.30695131 0.7980926
0.1182122 -0.11530946 0.29981181
0.17603533 -0.16870022 0.43863115
1.5546993 -1.4642293 3.8070879
0.0085581252 -0.0079235043 0.020601608
0.24361338 -0.2217893 0.57666606
0.18946888 -0.16966753 0.44114617
1.6595871 -1.4621739 3.801744
1.0483145 -0.90895355 2.3633361
0.16773228 -0.14316186 0.37222981
0.82775444 -0.69563091 1.8086838
1.980664 -1.6392965 4.2622738
0.38502958 -0.31391349 0.81619471
1.9515241 -1.5676739 4.0760498
0.061542645 -0.048721176 0.12667811
0.74893606 -0.58443654 1.5195717
1.8782749 -1.4450787 3.7572949
1.5946777 -1.2098489 3.1456826
0.77986848 -0.58356494 1.5173054
0.18899918 -0.13951436 0.36274603
2.0742073 -1.5107118 3.9279449
0.69024569 -0.49611324 1.2899255
0.41816938 -0.29665536 0.77132243
0.16138917 -0.11302395 0.29386935
0.68560934 -0.47406769 1.2326056
2.0424697 -1.3946215 3.6261032
1.4117875 -0.95208341 2.4754763
1.3106569 -0.87310374 2.2701242
-0.14138238 -0.092454791 0.24488147
-0.13255823 -0.087754548 0.23243213
-0.12769964 -0.085594855 0.22671182
-0.12297294 -0.083470002 0.2210838
-0.12731877 -0.087527752 0.23183143
-0.12160026 -0.084682122 0.2242943
-0.11871919 -0.083763599 0.22186144
-0.11589288 -0.082859725 0.21946737
-0.11473104 -0.083137542 0.22020324
-0.11322732 -0.083171844 0.2202941
-0.11039072 -0.08221443 0.21775822
-0.11020904 -0.083235167 0.2204618
-0.10959721 -0.083955564 0.22236988
-0.10850084 -0.084320262 0.22333586
-0.10682069 -0.084235355 0.22311097
-0.10373646 -0.083024181 0.21990298
-0.10056575 -0.081706032 0.21641165
-0.097293936 -0.080263928 0.21259201
-0.095729083 -0.080206931 0.21244104
-0.095654599 -0.081416659 0.21564519
-0.096111581 -0.083125055 0.22017017
-0.096068278 -0.084449701 0.22367869
-0.096191399 -0.085967235 0.22769813
-0.095905058 -0.087164067 0.23086815
-0.095522732 -0.088313416 0.23391238
-0.093906373 -0.088342197 0.2339886
-0.091363631 -0.087484948 0.23171803
-0.088736922 -0.086514644 0.22914805
-0.087387308 -0.086776584 0.22984183
-0.08696714 -0.087988786 0.23305254
-0.086552069 -0.089252844 0.23640059
-0.0855079 -0.089905038 0.23812805
-0.084077545 -0.090169154 0.2388276
-0.082154758 -0.089905158 0.23812836
-0.080064856 -0.089443475 0.23690552
-0.077552222 -0.088479847 0.2343532
-0.075388916 -0.087881543 0.23276848
-0.073587395 -0.087687738 0.23225516
-0.072414078 -0.088250734 0.23374635
-0.071303524 -0.088918157 0.23551413
-0.070332848 -0.089795969 0.23783918
-0.068777919 -0.089952484 0.23825371
-0.0672208 -0.090113871 0.23868117
-0.065568209 -0.090152279 0.23878288
-0.064566813 -0.091111608 0.24132384
-0.063758001 -0.092401907 0.24474141
-0.062897876 -0.093687452 0.24814638
-0.061157715 -0.093698181 0.24817479
-0.059472788 -0.093796656 0.24843563
-0.057776373 -0.093882427 0.2486628
-0.056360919 -0.094444372 0.25015119
-0.054744709 -0.0946953 0.25081584
-0.052959643 -0.094661154 0.25072536
-0.050992839 -0.094288588 0.24973857
-0.04925824 -0.094334133 0.24985921
-0.047699854 -0.094732992 0.25091565
-0.046217974 -0.095320337 0.25247133
-0.044907201 -0.096321657 0.2551235
-0.043694858 -0.097626351 0.25857916
-0.042544421 -0.099188834 0.26271766
-0.041340679 -0.10076343 0.26688823
-0.039759867 -0.10152514 0.26890576
-0.037904218 -0.10162617 0.26917332
-0.035942402 -0.10143817 0.26867542
-0.034204178 -0.10189541 0.26988646
-0.032481231 -0.10245462 0.27136764
-0.030872274 -0.10346575 0.2740458
-0.029150587 -0.10420871 0.27601361
-0.027365558 -0.10481519 0.27762002
-0.025561834 -0.10543787 0.27926928
-0.023842856 -0.10654302 0.2821964
-0.022127237 -0.10786548 0.28569919
-0.020489564 -0.1098704 0.29100952
-0.018744901 -0.11168338 0.2958115
-0.016795021 -0.11257411 0.29817075
-0.014725025 -0.1127992 0.29876691
-0.01269283 -0.11343711 0.30045652
-0.01069555 -0.11470467 0.30381387
-0.0086953035 -0.11656623 0.30874449
-0.0065982305 -0.11793812 0.3123782
-0.004425779 -0.11866091 0.31429264
-0.0022270605 -0.1194208 0.31630534
0 -0.12014814 0.31823179
0.002248408 -0.12056551 0.31933728
0.0045084455 -0.12087731 0.32016313
0.0067920838 -0.12140309 0.32155573
0.009137569 -0.12249509 0.32444802
0.011609505 -0.12450641 0.32977536
0.014194257 -0.12685552 0.33599734
0.016796649 -0.12866861 0.3407996
0.019456282 -0.13041209 0.3454175
0.022138758 -0.13190421 0.34936967
0.024951557 -0.13379677 0.35438237
0.027913729 -0.13607338 0.36041236
0.030945497 -0.13828154 0.36626101
0.033621516 -0.13868259 0.36732328
0.036289088 -0.13899399 0.36814806
0.039286155 -0.14044175 0.37198269
0.042741634 -0.14324488 0.37940726
0.046752226 -0.14746921 0.39059603
0.050645098 -0.15087348 0.39961278
0.054382298 -0.15348004 0.40651673
0.057618331 -0.15448228 0.40917131
0.061072528 -0.15594611 0.41304851
0.064525209 -0.1572732 0.41656351
0.067889526 -0.15827887 0.41922718
0.070398316 -0.15728922 0.41660595
0.071606286 -0.15358865 0.40680438
0.073309138 -0.15119337 0.40046009
0.075410001 -0.14976598 0.3966794
0.077325098 -0.14808479 0.39222652
0.079633601 -0.14724694 0.39000735
0.081910618 -0.14640872 0.38778719
0.084331676 -0.14587371 0.38637012
0.085905842 -0.143953 0.38128281
0.087347671 -0.14193365 0.37593424
0.089298978 -0.14083661 0.37302858
0.092975408 -0.14244527 0.37728932
0.096702993 -0.14404075 0.38151526
0.099537343 -0.14425547 0.38208398
0.10155113 -0.14330097 0.37955582
0.1037284 -0.14262021 0.37775269
0.10542156 -0.14132448 0.37432078
0.10813758 -0.14142975 0.37459955
0.11059061 -0.14119422 0.37397575
0.11421409 -0.14242923 0.37724689
0.11733205 -0.14299206 0.37873763
0.12009895 -0.14311154 0.37905407
0.12197248 -0.14218442 0.37659845
0.11604706 -0.13239886 0.35067981
0.13068852 -0.14599708 0.3866969
0.12873666 -0.14088155 0.37314758
0.12869015 -0.13801405 0.36555254
0.10422618 -0.10958588 0.29025593
0.12464334 -0.12853272 0.34043971
0.20695959 -0.20939083 0.55460548
0.14360145 -0.14259787 0.37769353
1.6529541 -1.6115583 4.2684731
0.063302197 -0.060614813 0.16054814
0.29132715 -0.27406532 0.72590637
1.5703076 -1.451793 3.8453085
0.21439749 -0.19485685 0.51610988
0.086091265 -0.076940641 0.20378974
0.045124933 -0.039667487 0.10506576
0.12615424 -0.10910839 0.28899121
0.72717702 -0.61893857 1.639359
0.20961288 -0.17562485 0.46517083
0.0039168401 -0.0032312493 0.0085584866
0.15184368 -0.1233675 0.32675877
0.41375574 -0.33114424 0.87708908
0.19468114 -0.15351927 0.40662065
0.21138476 -0.16427541 0.43510997
0.69675291 -0.53373873 1.4136933
0.14135517 -0.10675823 0.28276643
0.31151792 -0.23200563 0.61450446
1.9190296 -1.4096353 3.7336473
0.53905523 -0.39061555 1.0346085
0.57533008 -0.41134271 1.0895077
1.4528575 -1.0250791 2.7150879
0.24123062 -0.16799241 0.44495511
0.26095667 -0.17939971 0.47516921
2.120399 -1.4392575 3.8121064
1.8932576 -1.2690177 3.3611987
1.8993038 -1.2573534 3.3303041
2.2450697 -1.4681281 3.8885751
-0.12283667 -0.078825675 0.21275936
-0.090433218 -0.058748458 0.1585687
-0.12146726 -0.079895586 0.21564716
-0.12595113 -0.08389353 0.22643806
-0.12307703 -0.083030164 0.22410776
-0.11981376 -0.081878424 0.22099908
-0.11689628 -0.080935784 0.21845478
-0.11523668 -0.080850549 0.21822473
-0.11397739 -0.081047654 0.21875675
-0.11243221 -0.081044093 0.21874712
-0.11062907 -0.080851912 0.2182284
-0.10879438 -0.080630921 0.21763194
-0.10826747 -0.0813867 0.21967186
-0.10790875 -0.082292654 0.22211714
-0.10606092 -0.082072943 0.2215241
-0.10324309 -0.08108484 0.21885711
-0.10117964 -0.080668256 0.2177327
-0.098355211 -0.079622813 0.21491091
-0.097128578 -0.079858385 0.21554679
-0.095332697 -0.079625987 0.21491951
-0.095869571 -0.081365921 0.21961579
-0.095733628 -0.082582533 0.22289954
-0.096394591 -0.084538572 0.22817911
-0.096184872 -0.085784391 0.23154171
-0.095811486 -0.08692468 0.2346195
-0.094103366 -0.086872801 0.23447944
-0.091539033 -0.086014524 0.23216288
-0.088878505 -0.085033 0.22951365
-0.087591738 -0.085353807 0.23037952
-0.086989485 -0.086366311 0.23311239
-0.086505257 -0.087537199 0.23627274
-0.085566938 -0.088285483 0.23829247
-0.084510311 -0.08893919 0.24005689
-0.082741708 -0.088855006 0.23982966
-0.080580354 -0.088336751 0.23843084
-0.078000441 -0.087327838 0.23570766
-0.076105766 -0.087058902 0.23498178
-0.074532099 -0.08715339 0.23523682
-0.073076554 -0.087393448 0.23588473
-0.071585357 -0.087601036 0.23644504
-0.070238516 -0.087999359 0.23752017
-0.068882331 -0.088405125 0.23861538
-0.067574307 -0.088894546 0.23993637
-0.066152826 -0.089255974 0.24091192
-0.065043673 -0.090068914 0.24310614
-0.064108983 -0.091173925 0.24608868
-0.062877193 -0.091906056 0.24806479
-0.061028671 -0.091752805 0.24765114
-0.059342854 -0.091842353 0.24789284
-0.057677694 -0.091970272 0.2482381
-0.05644282 -0.092813723 0.25051469
-0.055015605 -0.093385123 0.25205699
-0.053363558 -0.093600258 0.25263762
-0.051318634 -0.093117341 0.25133419
-0.049519066 -0.093061045 0.25118223
-0.04785705 -0.09326864 0.25174257
-0.046366651 -0.093839534 0.25328347
-0.045087911 -0.094901621 0.25615016
-0.043925047 -0.096306249 0.2599414
-0.042691246 -0.097670741 0.26362431
-0.0413891 -0.098995812 0.26720083
-0.039773617 -0.099661931 0.26899877
-0.037879869 -0.099662542 0.26900041
-0.035883252 -0.099378325 0.2682333
-0.034239672 -0.10009459 0.27016655
-0.032635011 -0.10101558 0.27265239
-0.031134937 -0.10239565 0.27637738
-0.029365325 -0.10301419 0.27804691
-0.027508788 -0.10339438 0.27907306
-0.025622798 -0.10371383 0.2799353
-0.02392724 -0.10492159 0.28319517
-0.022224115 -0.10631274 0.28695005
-0.020550765 -0.10813878 0.29187876
-0.018816348 -0.11001358 0.29693905
-0.016827317 -0.11068235 0.29874411
-0.014717822 -0.11063664 0.29862073
-0.012642419 -0.1108747 0.29926327
-0.010670301 -0.11229493 0.30309665
-0.0086820554 -0.11421314 0.30827412
-0.0066108615 -0.11595521 0.31297618
-0.0044375863 -0.11675361 0.31513113
-0.0022372508 -0.11772486 0.31775266
0 -0.1186042 0.32012609
0.0022701672 -0.11945693 0.32242772
0.004555495 -0.11985581 0.3235043
0.0068765264 -0.12061501 0.32555348
0.009215449 -0.12122998 0.32721335
0.011653374 -0.12264086 0.33102146
0.014180885 -0.12436713 0.33568084
0.016812634 -0.12638374 0.34112391
0.019457627 -0.12798333 0.3454414
0.022210412 -0.12985767 0.35050046
0.024994791 -0.13152339 0.35499641
0.027892303 -0.13342746 0.3601357
0.030852268 -0.13528802 0.3651576
0.033606306 -0.13602883 0.3671571
0.036334913 -0.1365682 0.36861295
0.039353464 -0.13805281 0.37262005
0.042900078 -0.1410885 0.38081375
0.046882235 -0.1451152 0.39168224
0.050873738 -0.14872181 0.4014169
0.054575857 -0.15114734 0.40796366
0.058067437 -0.15277635 0.41236055
0.060953006 -0.15273175 0.41224021
0.064363092 -0.15394577 0.41551694
0.06776078 -0.15502582 0.41843215
0.070119463 -0.15373786 0.41495579
0.071075328 -0.14960027 0.40378794
0.072498955 -0.14672762 0.39603436
0.074377552 -0.14495447 0.39124843
0.076472528 -0.14371461 0.3879019
0.078675888 -0.14275689 0.38531694
0.080839992 -0.14179422 0.38271853
0.083509497 -0.1417515 0.38260329
0.085687689 -0.14090355 0.38031453
0.087943375 -0.14023057 0.37849808
0.090260841 -0.13969277 0.3770465
0.092952728 -0.13974863 0.3771973
0.095912814 -0.14019342 0.37839782
0.098356918 -0.13988034 0.37755278
0.10069647 -0.13943897 0.37636146
0.10283119 -0.13874385 0.37448525
0.10435936 -0.13728558 0.3705492
0.10692454 -0.13722935 0.37039748
0.10957581 -0.13728367 0.37054408
0.11265848 -0.13786338 0.37210879
0.11647557 -0.13929504 0.37597296
0.11969269 -0.1399615 0.37777182
0.123336 -0.14108652 0.38080841
0.11141035 -0.12473295 0.33666828
0.11985977 -0.13139708 0.3546555
0.17519124 -0.18813509 0.50779772
0.12488297 -0.13142763 0.35473797
0.088782586 -0.091603294 0.24724761
0.17115767 -0.17319946 0.46748483
0.2277467 -0.22611515 0.61031026
0.91190404 -0.88860524 2.3984456
0.14268918 -0.13651547 0.36847061
0.25778186 -0.24222435 0.65379077
1.4852886 -1.3711643 3.7009265
1.6012815 -1.4527578 3.9211566
0.59163487 -0.52766132 1.4242172
1.4822365 -1.2999294 3.5086555
1.7435037 -1.5039955 4.059453
0.29541737 -0.25072509 0.67673528
1.6265651 -1.3585774 3.6669533
0.30426338 -0.25016308 0.67521834
0.28262588 -0.22879793 0.61755133
1.0348741 -0.82508194 2.226989
0.2686719 -0.21100897 0.56953692
1.8971707 -1.4680843 3.9625247
1.9667081 -1.4998379 4.0482311
2.0573361 -1.5465385 4.1742811
1.8880734 -1.3993102 3.776896
1.9264263 -1.4079052 3.8000946
0.030514413 -0.021995591 0.059368577
2.1536067 -1.5313983 4.1334162
0.89897716 -0.63072622 1.702401
2.1395733 -1.4813821 3.9984169
0.13399851 -0.091572002 0.24716315
2.259584 -1.5243592 4.1144171
0.34950933 -0.23280117 0.62835652
1.6868091 -1.1095055 2.9946799
1.9328805 -1.2556641 3.3891788
2.3176031 -1.487232 4.0142064
-0.11973868 -0.075374082 0.20739348
-0.11904361 -0.075861685 0.20873512
-0.11997881 -0.077413373 0.21300463
-0.1222066 -0.079848908 0.21970604
-0.12164513 -0.08050105 0.22150046
-0.11969393 -0.080238506 0.22077805
-0.11627723 -0.078973696 0.21729791
-0.11427972 -0.07865192 0.21641251
-0.1130315 -0.0788441 0.21694131
-0.11139783 -0.078768998 0.21673466
-0.10992945 -0.078810297 0.2168483
-0.10757498 -0.078208573 0.21519263
-0.10843282 -0.079958409 0.22000735
-0.10678347 -0.079883367 0.21980089
-0.10530137 -0.07993307 0.21993765
-0.10300379 -0.079356 0.21834983
-0.10246903 -0.080140136 0.22050738
-0.10133787 -0.080474794 0.22142819
-0.10078526 -0.081286497 0.22366163
-0.097788461 -0.080121391 0.22045581
-0.096832767 -0.080618009 0.22182226
-0.096636206 -0.081773289 0.22500104
-0.097054772 -0.083496273 0.22974187
-0.096523508 -0.084446669 0.23235691
-0.095756903 -0.085220382 0.23448581
-0.09347675 -0.084650628 0.23291808
-0.091066517 -0.083940603 0.23096445
-0.088856637 -0.083392806 0.22945718
-0.087887399 -0.084010638 0.23115714
-0.087131828 -0.084859878 0.23349385
-0.086385056 -0.085750513 0.23594446
-0.085186161 -0.086218469 0.23723204
-0.08405818 -0.08677835 0.23877259
-0.082420588 -0.086824246 0.23889887
-0.080383144 -0.086442068 0.2378473
-0.077922195 -0.085578516 0.23547119
-0.07640326 -0.085734472 0.23590033
-0.07513836 -0.086188756 0.2371503
-0.073698491 -0.086458422 0.2378923
-0.07181669 -0.086210139 0.23720914
-0.070134059 -0.086194813 0.23716696
-0.068513066 -0.086256333 0.23733623
-0.067216381 -0.086739428 0.23866549
-0.065842196 -0.087144732 0.23978069
-0.064715862 -0.087908037 0.24188094
-0.063738532 -0.088920467 0.24466667
-0.062542275 -0.089675248 0.24674346
-0.060818173 -0.089694694 0.24679697
-0.059286512 -0.090007447 0.24765749
-0.057716887 -0.090279751 0.24840678
-0.056570344 -0.091251552 0.25108069
-0.055256352 -0.09200722 0.25315994
-0.053774837 -0.092525035 0.25458473
-0.051848553 -0.0922869 0.25392947
-0.049956877 -0.092095561 0.25340301
-0.048129499 -0.092012957 0.25317571
-0.046617307 -0.092549756 0.25465271
-0.045445785 -0.09383288 0.25818327
-0.044311035 -0.095302016 0.26222563
-0.042987105 -0.096474342 0.26545128
-0.041468505 -0.097296476 0.26771343
-0.039724208 -0.097642168 0.2686646
-0.037792105 -0.097537704 0.26837716
-0.035863589 -0.097431995 0.26808631
-0.034209125 -0.098100424 0.2699255
-0.032784566 -0.099545568 0.27390185
-0.031305391 -0.10099516 0.27789044
-0.029500773 -0.10151812 0.27932939
-0.027598262 -0.10175484 0.27998075
-0.025745643 -0.1022261 0.28127742
-0.024029125 -0.10336134 0.28440106
-0.022279479 -0.10454753 0.28766486
-0.020569731 -0.1061769 0.29214811
-0.018817225 -0.10792311 0.29695287
-0.016864356 -0.10881309 0.29940167
-0.014745155 -0.10873084 0.29917535
-0.012641449 -0.10875446 0.29924032
-0.010634423 -0.10978559 0.30207753
-0.008648592 -0.11160581 0.3070859
-0.0065884478 -0.11336089 0.31191504
-0.0044300719 -0.11433579 0.31459749
-0.0022412774 -0.11569032 0.31832451
0 -0.11713179 0.32229075
0.0022942079 -0.11842249 0.32584217
0.0046087778 -0.11894801 0.32728812
0.0069521521 -0.1196188 0.32913381
0.0093135834 -0.1201872 0.33069777
0.011734541 -0.12114276 0.33332705
0.014216214 -0.12230217 0.33651716
0.016723746 -0.12332098 0.33932045
0.019407764 -0.12522382 0.34455615
0.022102084 -0.12676288 0.34879094
0.02491965 -0.12863034 0.35392925
0.027841099 -0.13064569 0.35947454
0.030706313 -0.13208328 0.36343011
0.033554681 -0.1332328 0.36659303
0.036332846 -0.13395928 0.36859196
0.039417204 -0.13564256 0.37322354
0.042828567 -0.13817038 0.3801789
0.046817385 -0.14215419 0.39114043
0.050810978 -0.14570904 0.40092167
0.054571085 -0.14825536 0.40792796
0.057459272 -0.14829673 0.40804175
0.060319185 -0.14826465 0.4079535
0.063435838 -0.14883786 0.4095307
0.066950627 -0.15025476 0.41342932
0.069435395 -0.14933826 0.41090757
0.07077942 -0.14613979 0.40210688
0.071894974 -0.14273374 0.39273506
0.073276773 -0.14008898 0.38545799
0.074920408 -0.13811587 0.3800289
0.076989077 -0.13703533 0.37705576
0.079455107 -0.13671052 0.37616208
0.082089081 -0.13668633 0.37609553
0.084325753 -0.13602279 0.37426975
0.087342657 -0.13661987 0.37591264
0.089465283 -0.13582417 0.37372324
0.092160724 -0.13591872 0.37398341
0.093566619 -0.13415901 0.36914155
0.096610352 -0.13477936 0.37084842
0.097150765 -0.13196661 0.36310908
0.099323742 -0.13145886 0.36171204
0.10052156 -0.12971812 0.35692233
0.10438208 -0.13141456 0.36159012
0.10678765 -0.1312421 0.36111557
0.11054529 -0.1327007 0.36512896
0.11448203 -0.13430311 0.36953801
0.11796078 -0.13530895 0.37230563
0.12268735 -0.13767131 0.37880567
0.13386627 -0.14701943 0.40452725
0.12422032 -0.13358349 0.36755797
0.11005495 -0.11593509 0.31899804
0.15196377 -0.15688141 0.43166274
0.1811278 -0.18332276 0.50441664
0.061151981 -0.060702786 0.16702507
0.01648186 -0.016052097 0.044167705
1.2249769 -1.1709424 3.2218742
0.18724008 -0.17572662 0.48351577
1.7134101 -1.5793366 4.3455806
0.11775862 -0.10663979 0.29342175
0.29893279 -0.26604003 0.73201513
0.51143742 -0.44744733 1.2311614
0.50079495 -0.43083414 1.1854498
0.41943857 -0.35492775 0.97659171
1.2973325 -1.0800927 2.9718993
0.57488674 -0.47102416 1.2960335
0.24092768 -0.19431581 0.53466433
0.57210428 -0.4543215 1.2500757
0.11500682 -0.089945838 0.24748799
0.1072564 -0.082632288 0.22736461
1.844378 -1.4000463 3.8522594
0.068947271 -0.051578585 0.14191964
0.22103277 -0.16298966 0.4484697
0.5858717 -0.42593724 1.1719759
0.80301428 -0.57569462 1.5840367
1.5868967 -1.1220888 3.0874522
0.34477016 -0.24049132 0.66171724
1.476791 -1.0163872 2.7966123
0.012647312 -0.0085898601 0.023635192
0.36261997 -0.24308738 0.66886038
2.2039981 -1.458539 4.0132027
0.37303948 -0.2437413 0.67065966
0.14676626 -0.094697312 0.26056179
1.4244994 -0.907776 2.4977658
0.85310811 -0.53702146 1.4776266
-0.10976695 -0.067755304 0.19012193
-0.11367777 -0.071035609 0.19932649
-0.11957095 -0.075652145 0.21228053
-0.12064488 -0.077297844 0.21689838
-0.12043247 -0.078150995 0.21929233
-0.11726881 -0.077086329 0.21630485
-0.11393999 -0.075883634 0.21293011
-0.11254512 -0.07595405 0.21312769
-0.11123351 -0.076083325 0.21349043
-0.10991874 -0.076213941 0.21385694
-0.10873634 -0.076441243 0.21449475
-0.10732923 -0.076514758 0.21470103
-0.10686795 -0.077274293 0.2168323
-0.10527403 -0.07722497 0.21669388
-0.10422177 -0.077577375 0.21768273
-0.10237343 -0.077338904 0.2170136
-0.10317586 -0.079126097 0.22202846
-0.10290173 -0.080129944 0.22484528
-0.10196546 -0.080641523 0.22628075
-0.099509008 -0.079947963 0.22433464
-0.098427922 -0.080354862 0.2254764
-0.097354412 -0.080781393 0.22667325
-0.097842962 -0.082539894 0.23160762
-0.097084738 -0.083288401 0.2337079
-0.095730126 -0.083542258 0.23442025
-0.093297087 -0.082847387 0.23247042
-0.090899363 -0.082159609 0.23054053
-0.088903427 -0.081816599 0.22957803
-0.088062048 -0.08254306 0.2316165
-0.086830847 -0.082924657 0.23268726
-0.085677065 -0.083396308 0.23401071
-0.084102489 -0.08346881 0.23421416
-0.083139122 -0.084162958 0.23616195
-0.081633158 -0.084324948 0.23661648
-0.079780251 -0.084127836 0.23606339
-0.077507392 -0.083470076 0.23421772
-0.07619524 -0.083840825 0.23525804
-0.075123355 -0.084498316 0.23710296
-0.073644593 -0.084717616 0.23771831
-0.071695298 -0.084393263 0.23680817
-0.069712281 -0.084012829 0.23574068
-0.068054967 -0.084015913 0.23574932
-0.066768676 -0.084488645 0.23707582
-0.065497659 -0.085005447 0.23852597
-0.06417425 -0.085479654 0.23985659
-0.06305255 -0.086255439 0.24203347
-0.061680052 -0.086721703 0.2433418
-0.060206067 -0.087067842 0.24431306
-0.058922358 -0.087717615 0.24613631
-0.057641245 -0.088410735 0.24808122
-0.056535117 -0.089423962 0.25092435
-0.05536022 -0.090390272 0.25363582
-0.053988669 -0.091089211 0.25559705
-0.052272268 -0.09123446 0.25600463
-0.05037329 -0.091060042 0.25551522
-0.048429079 -0.09078791 0.25475159
-0.046861179 -0.091227427 0.2559849
-0.045756646 -0.092640258 0.25994933
-0.04468336 -0.094236717 0.264429
-0.043380551 -0.095466897 0.26788086
-0.041650523 -0.095825985 0.2688885
-0.039796252 -0.09591984 0.26915184
-0.037764214 -0.095573179 0.26817912
-0.035924826 -0.095703244 0.26854408
-0.034374438 -0.09666042 0.27122992
-0.032999162 -0.098251589 0.27569473
-0.031491835 -0.099623904 0.27954546
-0.029619869 -0.099948764 0.28045702
-0.027645631 -0.099950291 0.28046131
-0.025795748 -0.10043622 0.28182483
-0.024150982 -0.10186832 0.28584331
-0.022375593 -0.10295974 0.28890586
-0.020661075 -0.10457756 0.29344547
-0.018847378 -0.1059971 0.29742873
-0.016910955 -0.10699507 0.30022904
-0.014781698 -0.10688379 0.2999168
-0.012690099 -0.10705311 0.30039191
-0.010651862 -0.10783038 0.30257288
-0.0086439615 -0.10938013 0.30692148
-0.0065595186 -0.11067162 0.31054544
-0.0044083023 -0.11156473 0.31305155
-0.0022348159 -0.11311686 0.3174068
0 -0.11512804 0.32305023
0.0023012348 -0.1164787 0.32684016
0.0046297726 -0.11716968 0.32877907
0.0069760988 -0.11770012 0.33026749
0.0093793375 -0.11868553 0.33303252
0.011861803 -0.12007878 0.33694202
0.01432191 -0.120819 0.33901912
0.016785175 -0.12137057 0.34056678
0.019345824 -0.1224004 0.34345651
0.022014383 -0.12380825 0.34740695
0.024794079 -0.12549706 0.35214576
0.027738249 -0.12763563 0.35814661
0.030672155 -0.12937447 0.36302581
0.033502828 -0.13044387 0.36602652
0.036191184 -0.13084596 0.36715484
0.039274748 -0.13252802 0.37187469
0.04254356 -0.13458584 0.37764898
0.046603236 -0.1387563 0.38935128
0.050731599 -0.14265652 0.40029535
0.054636586 -0.1455511 0.40841758
0.057565313 -0.14568554 0.40879482
0.060195651 -0.14508796 0.40711799
0.063552797 -0.1462169 0.41028577
0.065889277 -0.14500149 0.40687534
0.069006875 -0.14553475 0.40837169
0.070246853 -0.14222385 0.39908132
0.071324907 -0.1388524 0.38962099
0.072186254 -0.13532446 0.37972152
0.073884383 -0.13356116 0.37477371
0.076145016 -0.13290125 0.37292197
0.078306891 -0.13211869 0.37072614
0.080244079 -0.13101979 0.36764252
0.082410179 -0.13035163 0.36576775
0.085334241 -0.13088654 0.36726865
0.088195294 -0.13129617 0.36841813
0.090660758 -0.13111033 0.36789662
0.091562226 -0.12873583 0.36123377
0.093968391 -0.1285481 0.36070698
0.095213331 -0.1268235 0.35586774
0.097663634 -0.12675172 0.35566634
0.0998988 -0.12641129 0.35471109
0.10243651 -0.12646097 0.3548505
0.10542426 -0.12705064 0.3565051
0.10943472 -0.12881671 0.36146075
0.11307189 -0.13007312 0.36498621
0.1171966 -0.13182206 0.36989376
0.10719239 -0.1179483 0.33096391
0.12189665 -0.13127422 0.36835656
0.1206094 -0.12718195 0.35687357
0.15612866 -0.16127689 0.45254424
